5.687221300380921329e-01,-5.544145748832592924e-01,3.872051325183426540e-01
9.099729771665344691e-01,5.934246161727226715e-02,-2.068023203985962788e-01
3.652455075377361027e-01,1.632760403267939697e+00,2.236733587195734452e-01
-1.761041895252670950e-02,-9.426017473764536359e-01,-4.408983328401884783e-01
4.080833793455284075e-01,-7.192387694255459873e-01,4.195658034327691133e-01
-1.236368635418665651e-01,2.710164003178810455e-01,-4.915158831775465753e-01
-3.659667932437570825e-01,-6.066277149856033057e-01,-4.399059587274640748e-01
-5.838162956446998342e-01,5.182876292987259603e-02,4.057360526786442656e-01
9.918894088906969886e-01,-2.174070643349614029e-01,3.293532535431049207e-02
-5.248463033170998049e-01,-1.437596615644037179e+00,2.279612634673801319e-01
3.300712814087845559e-01,-1.880802156023998251e+00,4.092298151110426024e-02
-5.715467196114194515e-01,1.302158226196756363e+00,2.497150054504408134e-01
3.080902616012998196e-01,4.161070778521543390e-01,-4.641643339504818999e-01
-9.849014918505037686e-02,-1.980789699743340071e+00,4.852249957797575425e-02
-5.999611207568810167e-01,1.252790851494918423e+00,-2.488349976303606825e-01
3.149771319618743792e-01,-3.111565971706008460e-01,4.681305371769649004e-01
-3.225478455380676457e-01,4.808830589289664892e-01,-4.577528695288350380e-01
-9.849190275081011192e-01,-2.684107800409682443e-01,-5.459721270803546272e-02
-5.199922080715504435e-01,3.710377666209396796e-01,-4.168905274409906991e-01
-1.091988775548997370e-01,-5.068409616601099454e-01,4.805865335807418259e-01
6.310482168865043651e-01,-7.383114421175052122e-01,-3.411386087699381786e-01
-2.327801169814966431e-02,1.971357205328220230e+00,-8.351021856861064185e-02
7.081721629890780356e-01,1.368891193607791809e-03,3.530197300086767576e-01
7.509844182965367265e-01,-1.045175190440873259e+00,-2.018196031097657106e-01
5.694656914073958909e-01,1.631067366275955166e+00,5.151125599638636116e-02
2.963283603610492589e-01,-1.439743850761668609e-01,4.761846666358066082e-01
9.790242130166119106e-01,2.867326723203803551e-01,7.238384485368071219e-02
-4.881084336590070238e-01,1.006616350970225504e+00,-3.565217516087895167e-01
3.898206299565397659e-01,1.179091995239424984e+00,3.537214275213139136e-01
-8.021012469084075336e-02,1.448500007898973596e+00,-3.424281923543416317e-01
-4.233223057258739264e-01,-7.780244280912292920e-01,-4.091050362676615371e-01
-7.926559526708243375e-01,1.049051912730776026e+00,1.553778151752071013e-01
-4.407351024141509810e-01,1.698136635641447345e+00,1.456327239780559335e-01
-1.535428739960296302e-04,1.992982189606818055e+00,4.184935603473724508e-02
6.249314596275028499e-01,1.377148553856461843e+00,1.839335042349563576e-01
2.611722710070407683e-01,-1.497935011912480796e+00,-3.044818220677197318e-01
9.936679280068934084e-01,-9.561534441591680589e-02,5.083914665035034475e-02
-4.582587779014018481e-01,-1.769293501024640891e+00,4.300877609368082555e-02
-5.235517652460288662e-01,1.571661954705639630e+00,1.645928492830711909e-01
-6.419752787946548800e-01,-1.263698166955931512e+00,2.171603538428341085e-01
4.919123856922522631e-01,1.626063890741932916e+00,1.557251269134647398e-01
8.891855504021941581e-01,9.149747279690569890e-01,3.686758414733135470e-03
4.832649139620029954e-01,-6.362715829660339217e-01,-4.078126534055718233e-01
3.831415239101063075e-01,-1.817203760386344680e+00,8.313422274441713278e-02
-7.366729882301719101e-01,4.139509594015102212e-01,-3.218982988517769539e-01
7.610155829041396203e-01,3.969187169934251802e-01,-3.088159506899481599e-01
7.920072223110762311e-01,1.217003724098194128e+00,2.474895800773963331e-02
-5.542256224383164120e-01,-1.624718491627594963e+00,9.070062730447192578e-02
-2.445036696581907865e-01,-1.249942560366265054e+00,-3.706847901080966845e-01
9.008616426456194093e-01,-3.653938884940293730e-01,-1.968947227407577827e-01
4.353592997792013475e-01,-1.760726315766899308e+00,-9.410498171888100061e-02
-7.386369639135085263e-01,-1.097284987268547285e+00,1.958359324277597069e-01
4.005083378050451337e-01,1.132468116456376128e+00,3.601985780965400452e-01
-8.559200215029572067e-02,2.706379152745373440e-01,-4.935490828863596247e-01
5.956471610646056902e-01,-1.593963992146272268e+00,-5.006035719747515406e-02
8.233330929859251635e-01,-9.591328293172838304e-01,-1.517717627934175306e-01
7.281901142191659071e-01,1.268145357900834380e+00,1.300874661161863233e-01
9.247951599126948974e-01,-7.317495209988161831e-01,-5.217655563458006851e-02
7.657764927633430307e-01,-1.223907688566546081e+00,9.886715278341612345e-02
6.705843049483820595e-01,1.113213874366207667e+00,2.452067532902283964e-01
2.520629686362135247e-01,7.436331734243584179e-02,-4.834981344588509811e-01
-2.087289873555253292e-02,-1.726646966476580225e+00,-2.521095423559376880e-01
-3.406608376209361855e-01,-7.354665768465214193e-02,4.697334126920439390e-01
-1.622640961362249723e-01,1.295798140775282103e+00,3.721213369641429014e-01
2.842735980882861169e-01,1.271478494951967741e+00,-3.588259085714858854e-01
-2.244946892918564529e-02,-1.997787907559063658e+00,-2.065726535321775123e-02
5.935861486734225201e-01,-1.602733734417461031e+00,3.696832510108624681e-02
-6.653802004076334597e-01,-1.345902574550729147e+00,1.615593960900507386e-01
-9.713568497758574560e-01,1.925487824785109547e-01,-1.086244815695720650e-01
9.780875475590565804e-01,4.094792298008507747e-01,-1.888411634374569451e-02
3.038821363440845635e-01,1.735490454846795316e+00,-1.966429934518840739e-01
8.370863052014232419e-02,1.331915589010223888e+00,-3.706390026408207805e-01
3.847017936634954394e-01,1.845951082608003224e+00,5.492724885577784759e-03
-2.736472961631256640e-01,-1.891353339329959526e+00,8.776786677646276902e-02
8.130448908240721639e-01,1.161804033132799452e+00,1.943484405625004602e-02
8.853997805630815787e-02,-1.571846684262166116e+00,3.059759682472207865e-01
4.310722979370589236e-01,-6.969157227659082965e-01,4.161591620977728723e-01
-9.281190251551693082e-01,6.616327292009130945e-01,-8.537506670210595616e-02
-4.973255511272969276e-01,1.530316814340088927e+00,2.044504268355354648e-01
-9.151838583993667786e-01,-4.270432931659254860e-01,-1.709144608903444551e-01
8.278653993607624217e-01,8.196050255801422546e-01,-1.915076898274507833e-01
-6.021535167681564271e-01,1.250957465965104598e+00,-2.480864248756279311e-01
9.285653453870744700e-01,3.656716761848241015e-01,1.615065444921883198e-01
-6.759191952105129131e-01,-1.246274198262393273e+00,1.967443755437051078e-01
-6.088257411277416820e-01,-9.216445010286158368e-01,3.228676471757370159e-01
2.287632203187756064e-01,-1.688480694546212080e+00,-2.423456338917460151e-01
-7.133997329417531841e-01,7.810406055560464855e-01,-2.909272736255558711e-01
1.847163933918777035e-01,8.460577629397895150e-01,4.435443662855573232e-01
-2.760566188084998540e-01,1.339646874668245280e+00,3.446481198301825644e-01
5.112395140484777833e-01,-1.512290792675632378e+00,2.042537018468716381e-01
2.298854437562801722e-01,-9.920288379983053240e-01,-4.186652537809625318e-01
-3.025471453142902223e-01,-4.673942901835189123e-01,-4.620202563844292287e-01
2.069011447996241815e-01,-6.426072446055672849e-01,-4.620486712933267737e-01
-3.081279730074816259e-01,-1.151874259570405234e+00,-3.786005727627347328e-01
3.322459363752437445e-01,-1.169664585281090963e+00,-3.699945361917324482e-01
-8.944339201056759059e-01,-1.409821487401662077e-02,-2.235722884486888717e-01
4.662095553974899276e-01,-1.054812864391708516e+00,-3.551376865859615650e-01
-5.150340676611855351e-01,1.671907658002998343e+00,9.476431940095622619e-02
2.273800826654764073e-01,1.838492357706060565e+00,1.606897326147069538e-01
8.452196599561843104e-01,1.423603710818336365e-01,-2.648287690234544245e-01
-7.819014604915007771e-01,-4.455567525564291254e-01,2.911184901136050218e-01
3.553538328754238945e-02,-1.988118933894669649e+00,5.143688537175497566e-02
-9.092361992917852298e-01,4.790903464106800458e-01,1.702260584424817869e-01
-6.153570013083273782e-01,7.229884607942570485e-01,-3.502348077827255879e-01
5.386193065864788299e-01,-2.360279801956847445e-01,4.171216671168878620e-01
-5.920408051387973103e-01,-1.601623328732522777e+00,4.524478772616504635e-02
-7.602130736858170312e-01,-9.635817288065533504e-01,-2.179183594690370096e-01
9.443377501646309513e-01,5.794327229196679641e-01,7.792727942844855649e-02
6.788213240174570950e-01,1.464577336429735421e+00,-2.717957166366934477e-02
4.480762983240539898e-01,1.767620800373964851e+00,6.728076880048802777e-02
-7.749758544219939038e-01,6.675720748168011420e-01,-2.683278341386232668e-01
-1.269130314088609823e-01,1.428026588710701983e+00,-3.442666473616172174e-01
-9.080683712939879859e-01,2.890228475898508065e-01,-1.965504270208076054e-01
6.827449930678577417e-01,-6.003998465810436169e-01,-3.330687918798216351e-01
-4.787740788585275187e-01,-1.500019515158503403e+00,2.281779705345589604e-01
8.624791847084105623e-01,8.266781343381648384e-01,-1.460141016276408910e-01
-1.453097184896401939e-01,-1.812071176397753947e+00,1.987363823193782353e-01
8.282283033388015969e-01,-2.991718429970430804e-01,2.700286696065661296e-01
2.520599008085724346e-01,-1.449814771124743773e+00,-3.205366939842845819e-01
3.418764049817294981e-01,3.321804713625602923e-01,-4.624755553886348847e-01
1.153246586693482817e-01,-2.815767399773182189e-02,4.966140376216618413e-01
4.746707295603713739e-01,1.748933363877459568e+00,-4.998930054944940998e-02
-8.388104991067210081e-01,1.061818871119168728e+00,6.027461700860665961e-02
-9.534717805634919108e-01,-4.548487017806099320e-01,9.895671817922237212e-02
-2.213815252601751271e-01,9.076205748267722750e-01,4.315803642750843383e-01
-2.780521766923499394e-02,-1.781779903925320818e+00,-2.266836801372870136e-01
-5.157302280416299345e-01,1.012424574863977078e+00,-3.456050679377410395e-01
-5.892700220455963089e-01,-1.568335841321847335e+00,-9.726447620368144920e-02
3.303883001684758125e-01,-1.773094083074784999e+00,-1.619242988660766214e-01
8.369613130022711678e-01,6.583593000422856001e-01,2.185958134031115996e-01
-8.703201865551481176e-02,-1.587973034969347053e+00,3.008366823466290807e-01
-3.619049625229202038e-01,-1.828888354322811605e+00,9.057682506701567049e-02
-4.918897779950899274e-01,1.845042134679769907e-01,-4.328781569642553007e-01
-1.410011289588899430e-01,-5.984254194696095874e-01,4.718554958791605358e-01
-5.006821134736265666e-01,1.284509905501437788e-01,4.316226670959988909e-01
6.589873423999258462e-01,-3.371593392689845592e-01,3.665094055896139791e-01
5.170352959088234668e-01,1.644948056674943260e+00,-1.185442696788921585e-01
-1.133672325026833932e-01,1.983251827424490132e+00,3.092700215441861883e-02
3.091501564648284073e-01,5.946254156237811284e-01,-4.516722635195051794e-01
-9.937004617470891477e-01,-2.176008126590443445e-02,5.576965357487703029e-02
-3.078767563666390261e-01,4.371020953514148100e-01,4.629922630155410279e-01
-5.738534520883020740e-01,1.635621594615184415e+00,-2.166630640799002000e-02
8.487024198535203512e-01,-5.267955355152410535e-01,2.293064644068507074e-01
-1.921973775627494607e-01,1.962576766336239897e+00,5.772285450739934355e-03
-8.256047561875810015e-01,9.876582819031284322e-01,-1.364822022348384234e-01
3.251133427168083068e-01,8.150101290393440001e-01,-4.266851698788935998e-01
-1.508847002512570534e-01,9.460949906776857654e-01,-4.340103323608021091e-01
5.613628316106489269e-01,1.556154733361954978e+00,-1.409497984610746935e-01
-7.659434995343283870e-01,6.518900056557515033e-01,2.770786939899215207e-01
-7.836003225697361074e-01,4.724826594226844145e-01,2.872980023446136122e-01
-6.362878384989720804e-01,1.511325325696503352e+00,-7.763975553058417856e-02
-2.447687636846911374e-01,1.515562219207096106e+00,3.024301746900777133e-01
-2.155735375725970626e-01,4.779518014013806604e-01,4.733969182363595984e-01
-8.240339601074025966e-01,1.093545638179553858e+00,7.417465351171081966e-02
2.340346162235609206e-01,-5.760792018524503177e-01,4.642900458515537010e-01
2.883431196305187225e-02,-1.081875769657598463e+00,4.202840667960665577e-01
-5.991641840093251403e-01,-1.228133285660201190e+00,2.568678837280992111e-01
-1.299925305906846906e-01,5.448095233186520669e-01,4.766806026617707581e-01
-8.412902002390070244e-01,-9.808712509362152998e-01,1.136922339624805295e-01
7.402314999637751303e-01,-1.027417688292142639e+00,2.168873843193090123e-01
-5.419941117853339652e-01,-1.335260275994237134e+00,2.552020677952940853e-01
-7.926965873107130189e-01,4.009897206394252844e-01,2.878514944599595005e-01
-6.025615459667468254e-01,-1.288102929930392104e+00,-2.356466071251339389e-01
-9.702905420557607075e-01,4.813562305206494085e-01,-1.235221469895789355e-02
1.586133360867460207e-01,-1.764403726844762099e+00,2.216763867609218286e-01
-8.306692807208205798e-01,8.834161653860402863e-01,1.694716169085626611e-01
-5.577055742326378907e-01,-1.625117374199574583e+00,-8.472436557524928857e-02
7.757370610606615369e-01,5.312661123403475960e-01,-2.862128104953815533e-01
6.392612824835598451e-01,-1.528937538249356853e+00,-4.163085919865580631e-02
2.819116693973802712e-01,3.585826502241603042e-01,4.712696763523875898e-01
-4.886461512778095262e-01,-3.642295255290943778e-01,4.266319116125154021e-01
-2.947435317503112051e-01,-1.903151500511391925e+00,4.367448344474954280e-02
9.656729102985440738e-01,5.062772993671436073e-01,2.914041159591923905e-02
-6.362748637808078866e-01,1.382627778425131737e+00,-1.712012005671330883e-01
-8.430079909720420428e-01,-1.030792048348134982e+00,-7.698127275975216732e-02
5.528186624858759668e-01,-1.287770229596856497e+00,2.644822703643583406e-01
-9.690617591587753071e-03,3.711877691165706428e-01,4.912893755072614277e-01
9.093937204546500563e-01,7.862696828953287531e-02,2.070371410894969177e-01
4.977524677770878841e-02,-1.997149631246498247e+00,-9.627595899452310452e-03
-5.281871372619764693e-02,1.922890741776642765e+00,1.349379322852999608e-01
8.194979766341674299e-02,1.381938600036062281e+00,3.591119801313781279e-01
-3.819501287884987661e-01,9.501251973147250007e-01,-3.963677668767236484e-01
-7.829507291577725292e-01,-1.244165917572680025e+00,4.868518628026764230e-04
4.159311615008980390e-01,-9.756985677839417059e-01,-3.837330924935342669e-01
1.971974715955028545e-01,1.364412277072463597e+00,-3.520326482514883892e-01
1.358300005034014379e-01,-1.693828531646317304e+00,2.570439832540659664e-01
-5.197693453083783721e-01,-5.271051200861395225e-01,-4.063188021038540709e-01
-1.777019660689584668e-01,1.965208899437625112e+00,2.697455582589196668e-02
4.988662610893521698e-01,8.744128143418113952e-01,-3.741600630330014776e-01
1.773823470963981630e-01,1.824619474650694295e+00,-1.845443348628786062e-01
2.542916080645524213e-01,1.029259492054104719e+00,4.094178802189993305e-01
-2.751082617651930406e-01,-1.797635197547509556e+00,1.706182642942395133e-01
-8.991949988954106576e-01,-1.404359550845067812e-02,-2.187458847143080032e-01
7.076560923449701779e-01,-1.401415024271588816e+00,-4.536473686552316281e-02
-2.396588836060883076e-01,1.427828648182252635e+00,-3.289718670973985626e-01
6.260373228638280163e-02,1.158273111946673817e+00,-4.064116208473734226e-01
-4.113670285691000683e-01,1.751590324827615897e+00,1.262537141025970033e-01
-6.595606911838982622e-01,-1.453589775645573567e+00,9.584999436578159338e-02
1.984770965428190315e-01,8.242889213646406033e-01,4.446188777134894576e-01
-7.384506271298834079e-01,-1.028719899140434935e+00,2.180163489108127850e-01
3.245299873489894682e-01,-1.891503131536206750e+00,7.652828863335995116e-03
9.346890050298735098e-01,-3.767656517087112356e-01,-1.507219084932522324e-01
3.701701471204438820e-01,2.229984936186407141e-01,4.611241644453755728e-01
-4.810589771176509433e-01,-1.725517931512357217e+00,-7.782870219566853653e-02
7.922538630591222653e-01,-2.516246109478428861e-01,2.985402319031867369e-01
-6.148406837578498374e-01,1.356640016049384334e+00,-2.011547291946930716e-01
-6.119267031199733253e-01,-8.471977695103469763e-01,3.339572183839172315e-01
5.937569926919682439e-01,-7.992893141888270936e-01,-3.491907722453725937e-01
-1.297122276359226611e-01,1.936335984371875929e+00,-1.070344301012251531e-01
6.315916524551725697e-01,-7.277927252047596829e-01,-3.422979045486919669e-01
-9.508992040352198805e-01,-6.103033418332963755e-01,-2.585131283882412256e-02
2.758657748463077750e-02,1.023505631594584075e+00,-4.293448603006175812e-01
1.201598485348341072e-01,-1.653374974021725397e+00,2.748405945360647973e-01
-8.374216500828911558e-01,1.082362921725521510e+00,3.823482179537294329e-02
-1.814947763773334388e-01,-1.217401687049906700e+00,3.861809579846448570e-01
4.554743039687432771e-01,1.343915292242918724e+00,-2.919829105628857224e-01
-7.959915032900868326e-01,8.953082900291223223e-02,-3.018251084463072220e-01
-9.120798995162865408e-01,3.335267330218378845e-01,1.872833658445841043e-01
-7.033015313921376910e-01,-1.063469436991230921e-01,-3.544501156132333075e-01
5.360294963032967708e-01,-1.628077927357946431e+00,-1.118178705588886157e-01
7.247047186562358689e-01,7.705024613753950202e-01,2.856503807152199759e-01
8.486191372626703533e-01,8.695324237395735123e-01,-1.506850198990899725e-01
-7.759613357173419379e-01,-8.854454176387867026e-01,2.246556301138349088e-01
7.312362100233626983e-02,1.282453484481856032e+00,3.819297059298324970e-01
-9.452588799857767343e-01,5.352020291207310043e-01,9.337471126367473395e-02
-1.490837255409757089e-01,1.040967059993465949e+00,-4.203780851153408049e-01
-2.685139585805424237e-02,1.582960708095651814e+00,3.053022484755077981e-01
-4.233388907939124035e-01,-9.858085802444981338e-01,-3.800755004997237174e-01
4.316862971272080740e-01,1.728503369488515684e+00,1.291471702064276861e-01
9.906366211031445435e-01,-2.311993553875670848e-01,3.631734931970509450e-02
-5.485174951432084667e-01,-9.124983550109621033e-01,3.503445609494289514e-01
-4.835089836102646199e-01,1.671250731927487632e+00,1.303354427296430085e-01
4.213296223778232874e-01,1.038042441080089029e+00,3.718529016748705063e-01
8.145604113252465917e-01,-9.249795616353458927e-01,-1.750675147913411944e-01
-1.327663433313071295e-01,-1.597309728295438047e+00,-2.934806237435538812e-01
-5.158533048895534989e-01,-1.625525021968631689e+00,-1.353813766485215953e-01
6.404140165005277607e-01,1.300111604713482416e+00,-2.045099883208611469e-01
5.256100117536053329e-01,-1.570018777163983525e+00,-1.639316743208146243e-01
3.633737467562423440e-01,1.624380704779029738e+00,2.282029533407299027e-01
1.109793407888404471e-01,1.984414232137610368e+00,-2.832236192701236693e-02
-1.894490858241450471e-01,-9.760625215432098267e-01,4.260089589404409960e-01
2.376540472462237985e-01,-7.526231401650462782e-01,-4.477471820261730295e-01
-3.798899549024297717e-01,5.265462443739078457e-01,4.433877775994064518e-01
-8.800542743319166306e-01,-6.483139264025012949e-01,-1.735127786636092573e-01
4.410678531476556752e-01,1.028015457468066440e+00,3.678502425313183166e-01
-8.797415977342619431e-02,-1.957835256159210946e+00,9.216944266832538535e-02
-8.330254359695311583e-01,-8.127073539864295704e-01,1.877134200196315106e-01
-3.680593655202306635e-01,1.801390887782723160e+00,1.154123269046556793e-01
2.235551522681468173e-01,-1.267763049752572702e+00,3.702084906896652705e-01
-7.262821894536650724e-01,9.547781528622603098e-01,2.472922618010028051e-01
5.462854653048019454e-02,1.140760206134813659e+00,-4.097811183817470226e-01
-5.086089391801470461e-01,1.498843160900071414e+00,-2.119458903481121481e-01
8.236898342163851972e-01,5.985255785594193467e-01,-2.408198704224340791e-01
9.708283021640250199e-02,-1.961760685866415832e+00,8.433367791755183585e-02
-2.215055317534145030e-01,-1.097779159418150324e-01,-4.868065585259470640e-01
-9.068537970161599793e-01,-8.161271892201361622e-01,-5.267896542094167162e-02
1.367294515290834178e-01,-1.151015148703049329e+00,4.031426822319179037e-01
-8.401428366836674044e-01,-6.404234830817961965e-01,2.188746527972490752e-01
-4.270038410122978800e-01,1.705033113886798235e+00,1.507342362389152979e-01
-2.457295813263313811e-01,9.145951064761063121e-01,-4.273452704382241785e-01
1.364578081478073912e-01,-1.848540104463586076e+00,1.782583358099520121e-01
-9.313417721572091468e-01,5.990371298492939145e-01,-1.035508724016240695e-01
1.860359570752939673e-01,-1.922535672810164797e+00,-1.016793604525661615e-01
-9.548742984211561202e-02,1.811366816514789591e+00,-2.065306967192867549e-01
-1.374674753171631347e-01,1.923814378361888400e+00,1.181495372736819233e-01
-6.348269017026721972e-01,-1.064621301377785212e+00,2.800179351567295694e-01
-4.654639475922959790e-01,1.746703923954814774e+00,-7.176291521741794133e-02
1.326496511895732811e-01,-1.525941116449080814e+00,-3.163384253144951863e-01
5.271063187251724402e-01,1.591564584904387569e+00,1.490716872678445881e-01
-7.998206754931962426e-01,-9.164374629006464268e-01,1.938572162711924285e-01
-3.079581173409264364e-02,5.893427999857121513e-01,4.775511449064614999e-01
-6.417880675411455904e-01,2.959342888861427601e-01,3.762358969207900694e-01
-3.617630274887876363e-01,-1.248797594742407924e+00,-3.461407422507284393e-01
-3.874653298616587832e-02,1.162309426288899994e+00,-4.064350826305302977e-01
5.989819796414302955e-01,-1.413530377341733146e+00,1.882176639876471935e-01
-8.815200015963218227e-01,-7.313187727950609673e-02,-2.353643021557297321e-01
7.861793924859653560e-01,9.883800796926639487e-01,-1.855385184719597902e-01
-4.108956887012751302e-01,1.585445401750596561e+00,2.251418733397214933e-01
-4.755384017281554798e-01,1.739094647787404746e+00,-6.661583894077240109e-02
-3.550963704430956103e-01,-1.867930130166367331e+00,-2.009866228325027718e-02
-8.274669945002737226e-01,2.409496112330611062e-01,-2.742189792047329266e-01
3.377317431149491345e-01,-1.796019223975303447e+00,1.409929133594357842e-01
-6.592419200816197478e-01,-7.814885724963428482e-01,-3.212160462879720124e-01
4.748287339735438595e-01,2.271698152399082016e-01,-4.363588380433149894e-01
-8.121416202033634457e-01,8.634706066881684405e-01,1.962336723015745965e-01
7.947626513415021465e-01,1.084445910863683915e+00,-1.363328597911973583e-01
-3.059806698223122567e-01,1.896285402382902996e+00,4.301525273803243760e-02
5.409714113784488410e-01,-1.477573082958021367e+00,2.009629183460787949e-01
1.924005932608250646e-01,1.072509703721664653e+00,4.109174934121810341e-01
-2.580361634854841379e-01,-6.935798094965113236e-01,-4.508752877177867879e-01
4.277846636817892595e-02,1.899813650750418637e+00,1.547958542086791400e-01
4.551499651600749985e-01,-1.461554127132376424e+00,-2.543636140352830144e-01
-1.958730323192412193e-01,-7.002015479621230831e-01,-4.580019659531842646e-01
7.032538659214027099e-01,4.732650762745175266e-01,3.352010747153567061e-01
-5.456559374329356116e-01,1.543514542598622974e+00,-1.632867968796201108e-01
-4.130315895489014011e-01,-1.817829719003932309e+00,2.862989788328255958e-02
-9.738746841384535724e-01,3.166425870041293389e-01,8.139789250659403008e-02
6.972458004871621151e-01,-1.144118935879447685e+00,2.159839454933724645e-01
-8.813000189561773778e-01,-1.531586121597725177e-02,2.362475569644291173e-01
-9.419074679748984380e-01,-3.097233794795107298e-01,1.490202828678563740e-01
5.826282400280685669e-01,-4.089416578688129245e-01,-3.932988730077522366e-01
-1.645366273339061644e-02,6.062315851873059103e-01,-4.764058388766287955e-01
4.613562990973950773e-04,-1.910050093539501503e+00,-1.482623917188718998e-01
-3.692664096886290048e-01,-4.420292370800167348e-01,4.513299394753476634e-01
4.590161380767597832e-01,-1.558951066953856879e+00,2.131443628717133998e-01
-2.053385983323364472e-01,1.640173389691396366e+00,-2.670645394712533038e-01
-3.988603048974873055e-02,-1.997295497275531240e+00,1.667167292515409766e-02
7.097694908592909746e-01,8.241120651951356901e-01,2.856733693597002244e-01
-8.322922638519094640e-01,-9.678329189481424955e-01,-1.351984169492596310e-01
9.360060834992799395e-01,-5.669800947526148355e-02,-1.754201710057350094e-01
9.497304289676884448e-01,-4.559050349723340889e-01,-1.072960414747086838e-01
2.424794093052541621e-01,-9.840033068812434891e-01,-4.180723947699336862e-01
-1.963157472714208152e-01,1.704471625483251929e+00,-2.424635265632151815e-01
2.609714201380392562e-01,-1.272199967560927014e+00,-3.630670490782760274e-01
3.694134811836835564e-01,-1.051710774473942678e+00,-3.830828212128570276e-01
3.963028133631706362e-01,3.767665314746709848e-01,4.492927289948536185e-01
-3.291173609112484078e-02,-1.940911750375289957e+00,1.195117273965726618e-01
4.968847309496608744e-02,-1.767666137857734743e+00,2.325780309429884563e-01
-8.763254700941999209e-01,-9.417974078983247788e-01,5.076436024214751180e-02
-1.675374160781225585e-01,1.924197287937033929e+00,1.075841687793879509e-01
-6.401445713799176485e-01,-4.506850743447238794e-01,-3.672314218151629395e-01
3.514645042910874428e-01,1.458325073853478648e-01,4.666786694747376840e-01
-1.863727847665467563e-01,1.292000736283199114e+00,3.701177885009313551e-01
-9.602580689707546080e-01,4.339849997321540420e-01,8.777627238956521583e-02
-4.130479548668316014e-01,1.797316106509166289e+00,-7.383273376526573728e-02
2.889217898492421055e-01,1.667164259695654294e-01,4.768583667291301231e-01
9.362937586128695644e-01,-6.572249090836558283e-01,-6.198357101398017932e-02
9.313954626665430503e-01,4.820964315725712046e-01,1.363802128155189863e-01
-6.363757464017383292e-02,1.429186441563441212e+00,3.483198199595895495e-01
-2.292051954846183459e-01,1.901619752703110455e+00,-1.041939986217998992e-01
-8.396818766241310739e-01,1.746678034127724100e-01,-2.680051938310695769e-01
5.165158032272139099e-01,-1.082261965939324666e+00,-3.318089376007046232e-01
-2.535323940294613165e-01,-1.639214908821037264e+00,-2.568875949965275240e-01
5.151605408748340942e-01,-6.088166360076476824e-01,4.006074116437535193e-01
5.007006759562723230e-01,-1.577196377584875853e+00,-1.784738984629253566e-01
9.048085439320997514e-01,-1.606969002414081471e-01,2.090846870233887822e-01
7.899267392885106487e-01,-4.655357174796918018e-01,-2.836524592237340547e-01
-9.513895210426709381e-01,-8.257026481134280282e-02,-1.526053055208469456e-01
-3.133814238264018281e-01,-1.236301057053688091e+00,3.604448665477567038e-01
-1.877154043830378261e-01,1.899520482880991290e+00,1.252182202558843049e-01
5.875446362744446427e-01,-1.292249552585217787e+00,-2.435744618417315654e-01
1.329183021318332547e-01,1.705443317086849042e+00,2.525858755004630751e-01
-5.814791811515419573e-01,1.236544416259959034e+00,-2.643962171351036394e-01
-1.712277524734880929e-01,-1.876375178528167709e+00,-1.504037101717613789e-01
4.306576739768098738e-01,1.797572058696365493e+00,-4.098060911397945205e-02
-8.336948745940438998e-01,-8.822297997396115476e-02,2.752303728364431379e-01
-9.195038017054498747e-01,-3.792257887117189696e-01,-1.721625024092200973e-01
-1.236890332408271259e-02,1.214695161211083008e+00,-3.971699656831930159e-01
-8.234678787558397106e-01,-6.519532931588531977e-01,-2.321852054622501049e-01
-1.336200387765412723e-01,-9.889074484579111202e-01,-4.294360254547444078e-01
9.397967680125923762e-01,2.809451393416748100e-01,1.557638372690830220e-01
8.383652887134641629e-01,6.099420037989579102e-01,-2.259072435098184450e-01
-6.467861339213846206e-01,1.520434995445010040e+00,-3.056572068331559616e-02
3.419291775854879558e-03,-1.511191541829076113e-01,4.985677132430238467e-01
-4.758891915363178682e-01,-2.173123026930141310e-01,-4.363838098948775723e-01
-4.801141775224046504e-01,1.471396888157763483e+00,2.388713963212721614e-01
7.661220799390138225e-01,-5.990960546964393396e-01,-2.843096630180327877e-01
6.932404086338136984e-02,-5.548456912695776122e-01,-4.791217856866531455e-01
3.329871030659798392e-01,1.678131671521385870e+00,-2.151093399012093399e-01
1.377933781451702588e-01,1.978649685842353234e+00,-2.371360431446264613e-02
-8.230026651453583586e-01,8.054757865724462285e-01,2.002927872359683559e-01
9.674881963196166890e-01,3.721333647720665994e-01,8.565304969478597374e-02
-3.868981242724075370e-02,-1.929337888871092810e+00,1.303043802563388642e-01
-2.542306381831632364e-02,6.727293130572478130e-01,-4.706942971994855784e-01
-9.636148451809509741e-01,-3.578759649954565969e-02,-1.333475179100541419e-01
1.055986253433687933e-01,8.797168527737543320e-01,-4.459185730214796917e-01
3.473790973577083885e-01,-1.867194172686390097e+00,-4.394383657135703114e-02
4.171113841655283982e-01,1.746185800783399023e+00,1.262209179228298284e-01
-1.443013859452421943e-01,-1.039706390531199620e+00,-4.209898352058005777e-01
8.641520232011444813e-01,-2.677109714709570154e-01,-2.425510202699049100e-01
-5.056529791326739437e-02,-2.186746814617488988e-01,4.963588662874984236e-01
-3.869257119588943583e-01,1.615108731058198632e+00,2.225670910871573593e-01
-8.872526208722822938e-01,-4.976274305655492558e-02,2.303061571615802605e-01
3.108313167448296666e-01,7.130895353203600129e-01,4.405280130663722371e-01
5.173402521738996729e-01,-1.516485184613841186e+00,1.983855051990485729e-01
7.479761547876334626e-01,-6.198721707087220256e-01,2.934583849817212764e-01
6.560639525235515412e-01,1.022756892607163071e+00,-2.775212491212654675e-01
-1.734638835453882755e-01,-1.549690993881889911e+00,-3.039427318491479402e-01
-4.065872819882498934e-01,6.306494567019682584e-01,-4.287356696776538634e-01
8.592052200449291632e-01,-9.199536954024059021e-01,1.120130454750797172e-01
-9.883590863942907923e-02,5.717283484045803110e-01,4.765797774431530520e-01
-2.070821366926277329e-01,-5.299896911429843316e-01,-4.708754401334170892e-01
3.352391567703869035e-01,7.744479779050538193e-01,4.294392536050858911e-01
7.709873892507957960e-01,8.462298592845327594e-01,2.379875006854675068e-01
8.384945518199369285e-01,1.553913703795087864e-01,2.696712197617578410e-01
-1.142622382653159657e-01,1.139252905613260980e+00,4.069612528145449271e-01
6.625225439025667074e-02,1.140800807941522610e+00,-4.093452143173902935e-01
-8.932177879276870236e-01,3.582621789003492263e-01,2.062001673871550478e-01
-9.169071261126735539e-01,5.334875826085748729e-01,1.484327051936441821e-01
-8.798828007019039443e-01,6.662018045968289837e-01,1.694476659008289088e-01
-9.544052575613913847e-01,-1.003148838731310472e-01,1.471350020878399167e-01
-3.673316233746764525e-01,-1.663060616707194184e+00,2.083415613591634019e-01
8.734269391838576091e-01,6.533994471702992968e-01,-1.805496278847624758e-01
9.550668172836721537e-01,1.742217775613044001e-02,1.481312690269982468e-01
-8.682762775357597551e-01,-9.555136895610781833e-01,6.679203383261322902e-02
-1.993659805042077848e-01,-1.919878394084302276e+00,-9.845042381786178742e-02
1.462674025350564622e-02,1.808861187497250445e+00,2.131849898333989524e-01
7.194331869115805356e-01,-7.103445037343636415e-01,-2.984411839348926621e-01
-4.799064325949405907e-01,2.265536338916402936e-01,4.349879822180782729e-01
2.676095835092414665e-01,-9.221524822739000093e-01,-4.230229930727854026e-01
-4.961728866841914054e-01,-1.674102360110070409e+00,-1.152798643388662087e-01
4.631677508870344906e-01,-1.768957223658641054e+00,2.816566950528675770e-02
6.343033559304298019e-02,1.818026098291653403e+00,2.059562265441133855e-01
8.153147754240096523e-01,-7.700542406995048994e-01,-2.162266944496409604e-01
5.515620919551981194e-01,8.133606698137191282e-01,-3.641395213095010575e-01
9.800739422529377576e-01,2.828485317194943671e-01,6.973923705995130340e-02
-8.804440091860565865e-01,3.632998284540736589e-02,2.369010235177322343e-01
-1.363452166169415725e-01,-1.618892050474714184e+00,2.855727202190027625e-01
3.423158076955861162e-01,-1.817218505862458144e+00,-1.196339346605642673e-01
-9.735065040470572972e-01,4.514000889896657154e-01,1.833423364302397274e-02
-5.368065147360586709e-01,4.223106122862012035e-01,-4.084275340940357601e-01
8.548008499700228136e-01,2.056736362504682503e-01,2.543325066366878828e-01
2.909799411050271178e-01,-1.796159681469868596e+00,-1.649115471548539547e-01
2.748327050345997780e-01,1.799487469391036987e+00,1.695053067897324961e-01
-2.870315341964958522e-01,-1.228553614948212136e+00,3.675176533774350274e-01
6.911433746726087790e-01,1.066434105545588595e+00,-2.439264286001277537e-01
1.951995890754492091e-01,-1.944960246304471063e+00,-6.359939170029181577e-02
9.019956442470504487e-02,-3.426748851546545516e-01,-4.905373378624339198e-01
8.463857280568031216e-01,1.052613658955138920e+00,4.071953028653401557e-02
5.158222135590867508e-01,9.972819031177369009e-01,3.483118736949225025e-01
4.210834512949215847e-01,1.107722269676059801e+00,-3.591401433846845292e-01
-6.846703605314640173e-01,8.157551620656463554e-01,3.020191948786235536e-01
9.592302018543547026e-01,5.618133641372232701e-01,1.556322443822478162e-02
7.839069679122327994e-01,9.818556743842602463e-01,1.900524429785807601e-01
1.318332459159340109e-01,-5.512248242761175199e-01,4.760928989038561987e-01
-9.338406498884498363e-01,1.389061138827624997e-01,1.754408115985379435e-01
9.385086532277732152e-01,6.172504401779744798e-01,-7.738213834861305818e-02
-9.308271074775907872e-01,7.252452970938197963e-01,-2.272504535598378339e-02
-8.159665065728799460e-01,-1.155936075394286222e+00,6.156450920870957556e-03
-8.680180817198156484e-01,-1.837236925747710858e-01,-2.439805376480487509e-01
1.353650515051519065e-01,-1.729694182849394579e+00,2.417208158626644454e-01
1.401846260753547846e-01,1.880200267103949940e+00,1.553705325244073565e-01
-4.912130773485119395e-01,-1.584132457684916950e+00,1.812048576674278044e-01
8.701124658502016329e-01,-8.489686377160997610e-01,-1.252171711624441020e-01
-8.543411901948784193e-01,-1.360158806414365207e-01,2.576218404899573433e-01
2.357805053069946255e-01,-2.257001459419301637e-01,4.826158965335752282e-01
5.320005835742582789e-01,-4.285722027370835741e-01,-4.095902970765175621e-01
-6.058407175221993193e-03,1.733146365191523097e+00,2.495066206077266591e-01
-1.796572883696437584e-01,1.429949869146745156e+00,3.378365365333760861e-01
3.787014876219307880e-01,-4.311527162014038850e-01,-4.500311147856818628e-01
6.145816909381617288e-01,1.429295925272913159e+00,-1.670087083531515137e-01
-3.118117759332842964e-01,-1.868580430337064557e+00,-8.642223416122299384e-02
2.490682346170738359e-01,1.269332032462296089e+00,3.657745420153030169e-01
-4.733164546152811292e-02,1.970399443444949439e+00,8.237296834499591158e-02
1.623664596639693147e-01,1.877050275266409218e-01,-4.911285062070044338e-01
4.336117483636453551e-01,-7.594549920904148932e-01,4.085914464438345495e-01
-9.481873132387006464e-01,6.346957651658721167e-01,7.601651684038822181e-03
-2.182062170447422456e-01,-1.327535440880385886e+00,3.577004543415666649e-01
-6.563527991160259534e-01,1.477812435076615305e+00,-7.618826152332910939e-02
5.400423930887257029e-01,-1.534000448251440218e+00,1.732518902191961807e-01
3.617039819177835236e-01,1.207617099992813303e+00,3.551708970397408627e-01
-1.042660275769608236e-01,1.815788249844638713e+00,2.030128403727557151e-01
4.277320453514085741e-01,-1.807683188075854597e+00,5.377505613180055648e-03
-9.331508710763650738e-01,3.443606764980916557e-01,-1.577841745311181210e-01
3.106003455016931869e-01,-1.817210837778643784e+00,-1.396098296496250668e-01
-3.069553768621458567e-01,1.300087970847707552e+00,-3.475705732760220878e-01
-7.936866478621363852e-01,8.822299942513608384e-01,-2.094511066550949208e-01
-3.948606958133615286e-01,1.268820471162206642e+00,-3.322682214310138660e-01
7.370732914283670834e-01,8.947958472577025590e-01,-2.532578039249460122e-01
-8.181274020683975134e-01,1.114474536236326419e+00,7.098271093199523540e-02
6.629703913221323131e-01,-6.039202004777600719e-01,-3.425238524883720270e-01
7.251566909624344026e-01,1.269476261796729011e+00,1.334684220481229533e-01
6.581705363498763228e-01,1.364155406481972532e+00,-1.593593045780646866e-01
7.331292592226080762e-01,-1.237334161294401103e+00,-1.412201584363759754e-01
2.910453126953679859e-01,-3.017698141777746534e-01,4.723680690867115284e-01
-7.635835983977939945e-01,-8.675977496731495098e-01,-2.391435889002661019e-01
8.250830030731773901e-01,1.056520100868337808e+00,-1.002239456854455701e-01
4.928369262693717556e-01,1.740242429233735733e+00,4.571594426595537112e-04
-4.864642338890756701e-01,5.036474733415575722e-01,4.183112940131669677e-01
-8.428437268867726706e-01,-1.076044980292324205e+00,-6.046737643942838233e-03
5.758360336161257725e-02,-1.673787596190435600e+00,2.721639668167211701e-01
-3.203530389197192796e-02,9.258237726591118655e-01,-4.429126112449726649e-01
4.994320073989646502e-01,1.732144337243432641e+00,1.103028472341296279e-02
-1.683296604624953674e-01,-1.969465018549191759e+00,2.217549653524851505e-02
8.723966725501983710e-01,8.333198316351628776e-01,-1.277874800931494415e-01
8.957019398459148407e-01,6.640514953648036789e-01,-1.478825022037830728e-01
3.881297302203139399e-01,1.520166880009975463e+00,2.605899445245778989e-01
3.741179920675734571e-01,-1.803849738834913952e+00,-1.078972403929200352e-01
-6.153520705326713802e-01,-8.497206982169409617e-01,3.319772255165190922e-01
-6.754525421272701280e-01,9.520077148950474299e-01,-2.815955393063274692e-01
-7.867796117477818818e-01,1.034602443632922197e+00,-1.683577206762481293e-01
5.978231818732506753e-01,-1.334920924507337681e+00,2.219819669157050979e-01
3.598028665089545997e-01,-1.635804419868706061e+00,-2.244871222567346725e-01
5.287576315607703803e-01,1.610050032154798583e+00,1.344898607291903914e-01
1.414288251464788093e-01,-7.906838134353083580e-01,-4.537903327007242749e-01
-5.403667672290882740e-01,-1.284467954528159650e+00,-2.718176205298075687e-01
5.415522901877548589e-01,-4.811573090925582719e-01,-4.027539658305985260e-01
-4.304614143379466573e-01,-1.124661508033703683e+00,-3.530180922605148375e-01
2.259667945842834813e-01,-1.265599192730474831e+00,3.703051709689243465e-01
6.906734467018965651e-01,9.073988181654583096e-01,2.815701671958984464e-01
-1.168428989171214905e-01,3.680056500025478683e-01,4.879781494504119022e-01
-2.254315004485041574e-01,1.934477329056651485e+00,5.837380501345837414e-02
-9.011299796787102245e-01,-8.375611070900230715e-01,-5.609725415913991570e-02
-4.186814382836590021e-02,1.942617638232438049e+00,-1.170536591049421982e-01
3.891841760377203752e-01,-3.805327176831651559e-01,4.506479750911476234e-01
-1.289601685752174987e-01,8.778918018115141608e-01,-4.446053786784086581e-01
5.916498402602741180e-01,4.551985446042008943e-01,-3.867004776851027392e-01
-1.472387315551894060e-01,-1.823570372894320890e+00,-1.916823738020372037e-01
-1.617345366002894413e-01,-5.069790905411344362e-01,-4.768608261613683230e-01
-7.360963919983674053e-01,-7.981572190402759226e-01,-2.733579910622967457e-01
-2.146291363425756049e-01,-1.279675679783045306e+00,-3.689654023332643029e-01
8.661304933069472467e-01,6.287155825243021523e-01,-1.942917571827520729e-01
3.299288915258092453e-02,-1.540759813052848815e+00,3.183654617282249411e-01
9.901635084347961691e-01,2.780222594254564417e-01,7.939338449871666606e-03
8.972722536047387232e-01,7.088925838445393479e-01,-1.315962851428819080e-01
-2.799693701181203420e-01,-7.515190479271668944e-02,4.796366331915155601e-01
-5.490322165016212619e-01,1.095403988476850304e-01,-4.170023532602631922e-01
-3.843880499692669539e-01,-9.736552165870583642e-02,-4.609435474759507323e-01
-1.261321588900621848e-01,4.669415964502094951e-01,-4.820741812392219661e-01
4.760694547351905781e-01,1.523112966287130332e+00,-2.198804204847164823e-01
3.685220778256499408e-01,-1.595031926372566744e+00,-2.388303616681305142e-01
-1.562859414623288812e-01,1.724064166659114550e+00,2.410785099359421813e-01
5.110027528930204122e-02,-1.932773214179896337e+00,1.259818315299237879e-01
-5.066682038037094715e-01,2.097436851281508086e-01,-4.278694975958027280e-01
1.351985844400871162e-01,1.668554951339230819e+00,-2.672556998249667193e-01
-5.653181333615606707e-01,1.001988020034586535e+00,3.276508850970012432e-01
6.834524298119932784e-01,1.171273874876717080e+00,2.179002946830857212e-01
-7.196616482204590826e-01,1.316596039938323415e+00,1.103753017949370835e-01
3.250520129942641168e-01,8.376548727173988018e-01,-4.239471569080209279e-01
3.082538502401686586e-01,1.539507099973710158e+00,2.794901769717254569e-01
9.530555325683111034e-01,1.460868984971359086e-01,1.469266878096052442e-01
6.392637281995354470e-02,1.521936348095801028e+00,-3.228160687389525219e-01
-4.986137843472535081e-01,-1.694756933896500284e+00,-9.128804386575452290e-02
-3.184616043534823637e-01,-1.650886372957446779e+00,2.330374178369523375e-01
-6.699666273389184856e-02,1.615188819522517694e+00,-2.929602005840063472e-01
-4.118752914042722590e-01,1.676458569069091187e+00,1.786969577800286979e-01
4.904380342215938077e-02,-9.983897474192391375e-01,4.325503390959037353e-01
4.546597438528081070e-01,-1.157220145433805580e+00,-3.385612577770231169e-01
7.256039842176799093e-01,1.367876958025343148e+00,3.783852208154627611e-02
-1.463186844079389093e-01,-1.442707469323661007e+00,-3.384669969445173177e-01
-2.717141733380897817e-01,-1.657344896623740071e+00,2.446800877758595893e-01
3.555725320509798837e-01,1.373338979706162810e+00,3.170383203004661921e-01
6.789805433329840767e-01,-7.665940050943199635e-01,-3.130769991605931724e-01
5.500145574608494847e-02,-1.879522015838279714e+00,-1.686891281771100981e-01
5.761526955200578781e-01,1.020273179045227518e+00,-3.192995190550746432e-01
3.311093866231193950e-01,1.791249404467681661e+00,1.485117561328109792e-01
-3.030449865186479186e-01,1.009189869256176542e-01,-4.758197073644043207e-01
-1.196890234482852478e-01,-9.068552752342705636e-01,4.416100981383179747e-01
1.107648879258487651e-01,4.462562380448931165e-01,-4.842377985309179178e-01
-8.562636084453596474e-01,4.049287425030304033e-01,2.376030361894920506e-01
-5.687186435295542575e-01,1.246210682088748412e+00,2.684673343555403213e-01
6.637181491111419085e-01,1.211450859173748285e+00,-2.194167965837374723e-01
3.685783652260345156e-02,-7.490552436252976287e-01,-4.632414490269179397e-01
1.479205960740397618e-01,1.454687099264303063e+00,3.350712081280645682e-01
4.621863896344283185e-01,2.627104849390211605e-01,4.385001543649866274e-01
6.617340744234628813e-02,-1.878131394731541670e+00,-1.686540069034884737e-01
-1.336166051192006210e-01,1.964659656887675965e+00,6.552616077933857974e-02
-3.405504065571854366e-01,-9.814102611861815761e-01,-4.010093189077261200e-01
9.251578112802228970e-01,2.629151257313017132e-01,1.780462955193189978e-01
8.699828934407115577e-01,-3.160079205508068978e-01,-2.335404213716631983e-01
-4.595824116345531563e-01,-1.705738719378839141e+00,1.238929600694966132e-01
2.306603173997586187e-01,-8.187590789652537948e-01,-4.413627223242904130e-01
-9.222731000686089642e-01,-7.374711837873566544e-01,-5.797928975215187880e-02
5.939129621282349669e-01,6.666410934304347613e-01,-3.661163771786009602e-01
-2.740794454129947266e-01,1.743588213894657901e+00,-2.030120025355733604e-01
3.545675807391475698e-01,1.857071436780883822e+00,5.500738669018444271e-02
3.422892758992015505e-01,-1.860581533369782825e+00,6.594911111083474886e-02
7.692664039813309484e-01,8.791092560676756484e-01,-2.318517461006416591e-01
-4.198545738094676683e-01,1.780139650406095120e+00,-8.873815852592162323e-02
8.793897581685696796e-01,-4.345398424793391889e-01,-2.118179846901180330e-01
1.788629935169704435e-02,-1.985915418374841312e+00,5.855567449182678963e-02
-8.183494949848685307e-01,-1.148525939041140420e+00,-1.146893516665277966e-02
-8.022282177798706337e-01,-1.106281308470546954e+00,-1.123224189887157692e-01
-3.755021124884927453e-01,-1.645617036424813495e+00,-2.132980929789237146e-01
4.521598802614408275e-01,8.792755605323464563e-01,-3.880303032124526319e-01
7.866236769744664459e-01,-8.942943016480883189e-01,-2.128864816827911732e-01
5.037462486358069702e-01,-1.412625708304293681e+00,2.486774361722429161e-01
-2.011253228978149010e-01,1.741653098800003852e+00,-2.242820352532364225e-01
1.358312634911643391e-01,5.762007852889824422e-01,4.739588673124715545e-01
-5.024362135955267039e-01,7.953889991094731382e-01,-3.838609566925562100e-01
4.882825410373239916e-01,1.339868382699126226e+00,2.796284764553411128e-01
-8.352796821094896629e-01,-3.939046921974957982e-01,-2.566698394929121108e-01
-6.112135980304775340e-02,-1.767575313148668892e+00,-2.319394088240895047e-01
2.545676057494690170e-01,5.691024357479147061e-02,4.833181250861195988e-01
8.379755419113776860e-01,7.475611279591932723e-01,1.987995731568777402e-01
9.796794070786158937e-01,4.009730926826396979e-01,2.889813238852233322e-03
-9.546492703527541535e-01,5.728187986089757766e-01,4.066456259753824937e-02
-3.191224738813123185e-01,-2.950658661383621650e-01,-4.680798223390631452e-01
-1.148285571343702488e-01,1.449486195019748402e+00,-3.396917150440350031e-01
-1.321046099878859514e-01,-1.531117228505728844e+00,3.148286756964741029e-01
1.461832092244484405e-01,-1.468519761215013597e+00,-3.314713023291349647e-01
-1.895679781969193400e-01,1.783982671726149993e+00,2.051922503334002168e-01
6.841852410573461274e-01,-1.457605128118208970e+00,1.357735743965495477e-02
8.906555280210631809e-01,-3.464482456197326421e-01,2.101940375476153144e-01
-9.532689662241027040e-02,-5.328514137796213079e-01,-4.795649396819489096e-01
6.127437322134191566e-01,-1.267086930541416523e+00,-2.362031944354016366e-01
-7.035439845326173502e-01,-1.131959437680686964e+00,2.148795125700527220e-01
-7.597913815499929280e-02,3.166509990408513109e-01,-4.922296737212292772e-01
-7.361144325206342431e-01,-1.275191575989045756e+00,-1.135860393781611827e-01
-9.256189916971775400e-01,6.418470877963858845e-01,-1.002965118801811689e-01
-6.861027476861319974e-01,-9.848682220983262514e-01,2.677553294953997631e-01
-2.233122205929701232e-01,1.948468741019117489e+00,1.580382431313105338e-02
8.552578067356962910e-01,1.017511415886661164e+00,-4.924863869369036640e-02
-7.829116239125433196e-01,-1.045839058419616663e+00,-1.685263741329653675e-01
2.157820124169282927e-01,1.944785513777601782e+00,4.441410099140236795e-02
4.687856994880351125e-01,1.482547744167561632e-01,-4.400980284042331214e-01
-7.924290497899486585e-01,-1.206226775711323640e+00,4.558081405115837342e-02
-4.048941111893896161e-01,-1.189185781010851040e+00,3.473183169962957284e-01
9.435947108969182651e-01,4.037826188364957436e-01,-1.312144435158977829e-01
-9.559994931236069915e-01,-2.456626685888547990e-01,-1.332079506475282726e-01
6.883824544686937275e-01,-6.932529064799234364e-01,3.185826809063627696e-01
9.094390808098832268e-01,-1.720991128153226690e-01,2.034183080119136566e-01
2.181506024679338573e-01,-1.405724299565450863e+00,3.385244130951575725e-01
5.923664587972358175e-01,-1.009184076521209450e+00,3.140417382355533138e-01
5.645456390029086613e-01,3.912429662443377421e-01,4.009427817107700243e-01
-7.885954262423171546e-01,1.165280925504682763e+00,-9.829463982516543907e-02
9.012309468731370954e-01,1.053219411070672462e-01,-2.150637129890282107e-01
6.707832152126288472e-01,1.481930647939909917e+00,-1.597080823806682273e-02
-6.226049007596600182e-01,-1.538048903344974461e+00,-7.239566679001591121e-02
-9.508394887660578387e-01,1.313497258206795804e-01,1.513200903588234614e-01
-1.920679177864045017e-01,1.921816226813017225e+00,-9.970645985433899960e-02
-9.746668698407114917e-01,4.411868620867185342e-01,1.845962496523680454e-02
9.922836221246141841e-01,-1.955003248397466642e-01,-3.813829771418666970e-02
1.166784811018742596e-01,1.908867435945134750e+00,1.373339088179075518e-01
-5.791127854474528158e-01,1.628738652134142040e+00,-1.891416461515820283e-02
-5.515552275213527755e-01,-1.663895884320771845e+00,3.020534939778143566e-02
4.601123357178953099e-02,9.649723001017243007e-01,-4.373471394082448227e-01
3.249531141196757011e-01,-9.471583423981221328e-01,-4.093068049245991435e-01
5.639932153198169429e-01,-1.651290560043645828e+00,-7.441852103148819016e-03
7.648921236037776739e-01,-1.107316309613517458e-01,3.208873111097816366e-01
7.711347035376683867e-02,1.005689856235108648e+00,4.304650075663671305e-01
1.820986240981579407e-01,-1.431526356206306749e+00,3.370916655648844573e-01
-1.399899166152179797e-01,-1.669165910086305216e+00,2.663991903129134253e-01
3.385838108331211405e-02,9.240773511077937652e-01,4.431066102877550539e-01
-6.120825087552536070e-01,-1.150535457111147464e+00,2.713033555627288318e-01
-9.800894050881583386e-01,-5.915890690386860912e-02,-9.817053270638922968e-02
8.604821480509488030e-01,-1.013708926446967196e+00,2.583130850372952064e-02
