5.079910588461652443e-01,-1.138661620182657819e+00,-2.823047317837823478e-01
1.276018242458438312e+00,-4.850133517532314031e-01,8.565640835378528217e-02
3.316401292256494771e-02,8.123581705475039216e-01,3.250677290593649293e-01
1.107120021266969623e+00,4.005825788076019522e-01,3.304054196126320342e-01
7.462449915505102727e-01,6.838678374584419295e-01,-3.748013660121183310e-01
8.926231394558399312e-01,6.783173113246492303e-01,-3.549043027985237519e-01
4.251124356323106313e-02,1.020223631214818294e+00,3.744054122622182401e-01
8.470402698131360708e-01,-8.171940788444542747e-01,-3.306098303812700090e-01
9.188326452329589333e-01,-4.901006095129210038e-01,3.727110151760844037e-01
-7.294506781956403563e-01,-5.463645236975148700e-01,3.643780954510373871e-01
-1.142133922492593934e+00,-2.650306756043352419e-01,3.329795549203358185e-01
1.020363201311422774e+00,-4.113619608425763130e-01,3.613755295912233212e-01
-6.464120608577230698e-01,1.164374287140269137e+00,-1.747927235805543100e-01
1.234745722293170589e+00,5.768840369732981532e-01,9.463793854139238015e-02
5.314079290410502754e-01,7.877720227709517076e-01,3.716855543774627568e-01
3.618470997487955310e-01,-6.591814837064358112e-01,2.812549758076198780e-01
5.820965268981938001e-01,-5.153161968203212595e-01,-3.018023508578043801e-01
1.699698691593020117e-01,-6.081019271561504125e-01,-6.903549404668747613e-02
-4.099530198017821425e-02,-1.245623225993413907e+00,2.827763549312743430e-01
-7.230161404989462470e-01,4.111646295842184134e-02,2.540682991181534844e-01
-3.702105699351860291e-01,6.625976067979716388e-01,-2.873104932339820006e-01
6.296102434158526995e-01,4.422331620335643448e-02,6.769870667069988190e-02
-1.290447767217952624e+00,2.454920036197449085e-01,-2.056345731016478440e-01
7.802736227554828430e-01,2.712434169705483233e-01,3.322274776414725350e-01
1.714397078942980213e-01,1.098360767998307841e+00,-3.579902861117371105e-01
1.332870576854067401e+00,-3.171433797546955868e-01,6.053533127653074747e-02
1.399122888459188863e-01,-8.149891321291120594e-01,-3.326640846163896326e-01
3.108827894979189210e-01,1.280166169149388411e+00,-1.997471379832061744e-01
8.254524665666991279e-01,-5.297929048276962538e-01,-3.745103413720952679e-01
-6.205280596077231703e-01,-4.967652871339009457e-01,3.139266005069707433e-01
5.189517966374480595e-01,-3.675930024096501492e-01,8.996898338489664471e-02
4.504057771825065726e-01,-1.280385942074149463e+00,-1.138607949126175523e-01
-4.531563021242968614e-01,-4.416765557833794986e-01,7.605973287946499184e-02
-1.000603453680904087e+00,6.067044829787793248e-01,3.341664319094684310e-01
2.701079761168194704e-01,-6.252853779979291593e-01,-1.973521746393931409e-01
-2.776636500091096971e-01,1.293560674303971147e+00,1.904719499236082747e-01
-1.020000340918119530e+00,-4.557528497287187674e-01,3.562186525730947073e-01
-1.308378495303206712e+00,-2.736279652498070925e-01,1.651310720180550196e-01
-1.251433814557089352e+00,3.695611164020838890e-01,-2.183685455660566710e-01
5.643810632666763638e-01,2.995960540924764159e-01,-1.014049876744393119e-01
1.356682556522014194e-01,-1.026044431467658891e+00,3.733654458075196803e-01
1.023538392968902366e+00,-9.178282696340747115e-01,1.263441955087420479e-02
1.103004560172494118e-02,-7.164832807482554022e-01,-2.455430760354875286e-01
-5.843015799406048316e-01,-7.693534858311233959e-01,-3.734628808123730548e-01
7.698714653031162314e-01,1.115565144666092134e+00,1.195627639817008619e-01
6.104751302002796587e-01,8.351315241567993652e-01,3.734125602814033495e-01
-1.001645621746938053e+00,3.046974827901425265e-01,-3.720475006876368118e-01
-1.099535711577912966e+00,-2.365046927677333377e-01,-3.536650877291097617e-01
-7.156287459090713288e-01,3.284486037817322956e-01,3.089132262819564434e-01
6.061044474985499697e-01,-1.659192067594856823e-01,-5.041358363045578966e-02
-1.066030524635368931e-02,7.315128545325334519e-01,2.618804202908002754e-01
-8.922892434791757088e-01,1.024676082484785866e-01,-3.609048211013468066e-01
1.077594782568495502e+00,8.083355760765646991e-01,1.419944846667456351e-01
1.078419847142151555e+00,-2.591379488047589885e-01,3.587733965878003861e-01
9.595902810917238401e-01,-2.011986793492049619e-01,3.744903750408135612e-01
-6.654733482227652708e-01,-1.117292971806953084e+00,2.243842497993975837e-01
-1.408906165268417332e-01,1.175855303762058268e+00,3.266053527142108170e-01
9.899367331667309200e-01,5.170590398113892316e-01,-3.563342892690406494e-01
-2.236288141880109492e-01,9.057584073220884546e-01,-3.689582513599385938e-01
-3.804617857727886632e-01,5.023268134829276255e-01,-6.190861250638576840e-02
-3.741507386785232481e-02,7.282408033201254183e-01,-2.594090809932642072e-01
8.129258629214398957e-02,1.071005815820841978e+00,3.676087340770147760e-01
-6.956544404725804043e-01,9.298692132634861496e-02,-2.274347907784418088e-01
1.031256801604951034e+00,-8.875141915469132448e-01,-1.029981972049670014e-01
4.388513683609658877e-01,4.580978411197120237e-01,8.337009210560672456e-02
1.135481033497683923e+00,7.739823733731182598e-01,2.481187907992518649e-02
-1.357733176355864435e+00,2.106974193275478746e-01,-2.758195113548965460e-02
1.444494305233379738e-01,-7.109256074538048420e-01,-2.554378426292903681e-01
1.308926604160563834e+00,3.326019760641030776e-01,-1.332609551031704864e-01
-1.159141963220533089e+00,2.303281548830331260e-01,3.279820658585042015e-01
1.932663853301745671e-01,-8.133866332310132341e-01,3.372529248761651499e-01
-3.162707019772301731e-01,1.322311962779399774e+00,1.063320851747162621e-01
-9.218031103513443236e-01,-1.015504850357739297e+00,5.122404578020045562e-02
1.107715341396076081e+00,-3.500245485553971081e-01,3.383454045505395746e-01
-4.833404447750394572e-01,6.262202116251396333e-01,3.113959583296757039e-01
-8.937823388724459583e-01,-6.624598130932627393e-01,-3.577210342085256900e-01
-5.044059961065682635e-02,8.188973083389162744e-01,3.292211210243536357e-01
1.365201284354648159e+00,1.604085167707947068e-01,1.747038145571686366e-02
-6.517680176717702833e-01,-3.125221694987558307e-01,-2.525813943380315063e-01
-9.002824702383871447e-01,9.657833799308139788e-01,-1.949867072088510844e-01
-1.121349648341083860e+00,-4.444298420558324275e-02,3.545205533778032492e-01
5.718753168697530143e-01,6.745791147695968659e-01,-3.567255840757440621e-01
-5.437171071154545121e-02,1.038118868550099494e+00,3.729094384910396909e-01
-3.427973232396672731e-01,9.860104495614193665e-01,-3.724215557276879807e-01
-6.216758884513204908e-01,-1.355573008880272545e-01,9.129790509881420546e-02
-4.850835956040697727e-01,6.183638309190202520e-01,3.078918465293982720e-01
-6.989557794617705377e-02,1.369459476819853361e+00,-5.295630162122335477e-02
2.302993708625743485e-01,1.260458526135955770e+00,2.479542322800251108e-01
1.152305899852335419e-01,-1.365363163653565248e+00,5.970230050907604502e-02
-2.812386444872754243e-01,6.723755498218736415e-01,-2.590143628568510326e-01
-1.321222274796264529e+00,-3.751797946809275475e-01,-3.396717171627212234e-02
-5.924474801311380157e-01,-8.411048374584264575e-01,3.738916235292792933e-01
7.834591276021491968e-01,4.369175151718651118e-01,-3.605926149474210640e-01
-9.311184838135821984e-01,6.267293420523331049e-01,-3.544635111887880496e-01
-8.798224828151559596e-01,-4.098443327199396968e-01,3.738455660718501550e-01
5.581496748068653924e-01,9.730437633372025497e-01,-3.546822972810838581e-01
-7.381703491956563834e-01,6.292459906661037605e-01,-3.737958380134309144e-01
1.196330663346144130e+00,-5.500151809608504472e-01,-2.007987280344101233e-01
3.575776488155888444e-01,6.154438583908236060e-01,2.399064441304137318e-01
-1.233445707185364615e+00,6.019024524530699471e-01,-4.348373011597031490e-02
-1.117883059086890896e+00,3.307967092056431913e-01,-3.363561378987207084e-01
-6.222343214413337265e-01,-1.003544554243903514e-01,6.267710595273301433e-02
8.003666058536397232e-01,9.501180078875954838e-01,2.862086469856328086e-01
6.914709229256887912e-02,-7.239989005468970840e-01,2.574026511532167549e-01
8.948908506730456347e-01,-8.969250458063157128e-01,2.633112276910392624e-01
4.765319606001455210e-01,4.468944669743160070e-01,-1.429064173756514622e-01
-7.215377013066740508e-01,1.155709965630615343e+00,-9.618606020001062296e-02
-1.335071159618018255e+00,8.831132985869442897e-02,-1.624457004858750331e-01
-2.340148704975846816e-01,6.277009734309461075e-01,-1.779372958754665557e-01
8.997464192560827856e-01,3.734834336340905336e-01,-3.741102890776504819e-01
-7.237949106353495088e-01,-8.980517143356484544e-01,-3.421805595353956120e-01
5.301862351249517769e-01,-6.145466122988043622e-01,-3.242634502462726775e-01
-1.540841713775745470e-01,-7.109339636156802866e-01,-2.575579079728149701e-01
1.004173966619908015e-01,-1.288252048346573808e+00,-2.350907082708037499e-01
-7.633549644230005482e-01,-1.143442484158722072e+00,1.112014373900951925e-02
-5.333161524334379955e-01,1.079252336271913082e+00,-3.147657465672396571e-01
-3.997425985578664798e-01,5.243302162556857660e-01,-1.567453079942395522e-01
3.128350316692120603e-01,6.066827574956527025e-01,-1.996902073073239525e-01
4.650857390216779630e-02,1.330267283988035176e+00,-1.760994088251032486e-01
-1.125212286647670812e+00,3.114048796284298870e-01,3.355085111235323603e-01
-1.267706164211058750e-01,6.120124962453873385e-01,-1.746660385831575162e-03
-1.131373118027767652e-03,1.321197250984378790e+00,-1.935381481178736207e-01
8.726211146061375601e-01,8.566223822080056005e-02,3.541900734576085563e-01
5.719662887400199791e-01,-9.964233622812816993e-01,3.441648104148971044e-01
8.186974236860308785e-02,-6.370938797028582457e-01,-1.126902175310662141e-01
8.566431899178232889e-01,-2.573645410121134791e-01,-3.598445801919282205e-01
4.774881645386649387e-01,1.071993019992946161e+00,-3.324358921812695655e-01
1.828265271839417394e-01,1.353252703713287097e+00,-8.366864208622237786e-02
-2.709634808503881276e-01,1.272199297995419309e+00,2.240162783144631908e-01
-1.029695281908802107e+00,3.014919180325397741e-01,-3.678407660866538920e-01
-1.047550416067330181e-01,-7.271796046083711662e-01,-2.650161912373077966e-01
9.784661368690049654e-01,-5.584779591752504491e-01,3.529731105268313351e-01
1.040510621725598606e+00,5.149144851907717646e-01,-3.387047044877978808e-01
4.307408599198532251e-01,5.695807859583591481e-01,-2.426822149407050488e-01
-9.466040300111426831e-01,3.772319544722514406e-01,-3.745183041601229390e-01
-1.780368927273083823e-01,1.161002623694372016e+00,3.318868735519552859e-01
-1.056981258179646055e+00,-2.165148422607678369e-01,3.665994997345127793e-01
5.798692292559967099e-01,-9.671178306404020208e-01,3.526099746710991689e-01
2.195252196058391503e-01,1.340262657313232797e+00,1.112368977535844600e-01
1.197692223943844780e+00,-6.684019602055389919e-01,-5.054055151771479765e-02
2.832935028587229009e-01,-5.709564264658105737e-01,-9.553982681758137196e-02
7.570700456218864005e-01,5.223595891648704637e-01,-3.663214964587052647e-01
-4.185912365948972758e-01,-5.216565670204672545e-01,-1.759451437925089179e-01
1.309151245555843834e+00,-3.832167766503462025e-01,-8.981087489370638555e-02
-1.972579320056199736e-01,-9.013835834041385997e-01,-3.669496367211867449e-01
-6.905451263898337855e-01,9.567858041103358691e-01,3.290008004690624932e-01
-1.529138651330809173e-01,-1.165610181508257792e+00,3.313464631667188409e-01
-1.169152237254083460e+00,3.442829612796515226e-01,3.045589905843630318e-01
-7.397107010444441411e-01,1.410602871607096187e-01,-2.821984812169491263e-01
-9.439136058408785779e-01,-6.260132840467114157e-01,-3.507599589480106528e-01
8.162051323760450838e-01,-1.066322658729270456e+00,1.519268260416753447e-01
-1.105516815880972503e+00,8.039581037864771407e-01,7.734614213673528249e-02
-1.312225772237193486e-02,7.476752372445716333e-01,2.775163204650495929e-01
-5.844585735869296528e-01,1.233749163075010369e+00,-8.523645650671586582e-02
-6.513995830023588951e-01,-1.057390446661168548e+00,-2.865200443129456431e-01
-1.173503122526954545e+00,4.598471100099191800e-01,-2.698609679972286401e-01
-3.422420187608427727e-02,1.108360920248402604e+00,-3.588427863283496499e-01
-8.752176852464289558e-01,-9.857406815129627908e-01,-1.984042276385116765e-01
-6.283416602926549244e-01,3.453628262602044807e-01,-2.460404255246705918e-01
4.080577795337197999e-01,4.735225648221937367e-01,-8.114811345516677321e-03
2.413491152898072645e-01,-5.950563886100364019e-01,1.120711853712380857e-01
6.306397918683385173e-01,4.164923328240308087e-01,-2.845550464479690289e-01
-5.051941006364669695e-01,8.108854042218721636e-01,-3.723362752867941383e-01
-1.088333780619325397e+00,-2.822076972991967581e-01,3.537905494669051354e-01
6.537417288501906620e-01,1.166594977271854768e-03,1.439823964616728236e-01
1.102905165369880258e+00,6.332536234733456837e-01,2.583867481720051318e-01
8.588828686879526053e-01,4.223132210162930944e-01,-3.725373060620085219e-01
5.850775284541959165e-01,-8.797677600805233755e-01,3.707109509631615341e-01
1.374247696389214957e+00,-3.357010280354134901e-02,-1.601991353952563618e-02
5.922056564497794051e-01,2.224713134977971685e-01,-7.518542076121199902e-02
-1.100376056727797813e+00,7.728674142319706675e-02,-3.605524805993164383e-01
-6.573252603580457265e-01,-3.225366119657605002e-01,2.624963396894870460e-01
4.827306328310416172e-01,5.169974325074010446e-01,-2.344548059233697579e-01
3.645235811358606970e-01,1.203818943141918618e+00,-2.723322360801280206e-01
6.215063144420827079e-01,-3.492377668344026631e-01,-2.412527755834125709e-01
-1.061406864847903586e+00,-4.502587440860189583e-02,3.697783780442955304e-01
6.226470449153207465e-01,3.762830590444278256e-01,-2.576373470986556558e-01
-5.031463995188556471e-01,-1.242263238022076610e+00,-1.575705738880365248e-01
6.644498566854249721e-02,1.003450786840786479e+00,3.749574605040791875e-01
8.487605867222254297e-01,2.320919081303768894e-01,3.552549280989479863e-01
-7.119463236943990303e-01,5.544921993356377588e-01,3.620767991432259914e-01
-4.017291693167340250e-01,-1.052618102969868019e+00,3.529575710285014489e-01
-1.291672420872047367e+00,2.522498755637955781e-01,-2.017993519721459628e-01
1.274814552636818199e+00,-4.879558874438932325e-01,-8.597958025535624993e-02
-3.029768411463444888e-01,6.528610295495156368e-01,-2.491547614113452380e-01
5.140235187415805873e-01,-3.557556949149776049e-01,9.713394916556402151e-03
-8.831650601256098021e-01,-5.451964936586720656e-01,3.730806865220210877e-01
7.108181674197244782e-02,1.268202059788470226e+00,-2.600403646211991715e-01
7.958109476851641384e-01,-1.033248731632144812e+00,-2.192987449718065418e-01
6.629098533733173149e-01,2.036680942758354318e-01,2.160495530586110102e-01
7.742054569672780773e-02,-7.373706013841047069e-01,-2.715941483051144134e-01
5.798943069678246243e-01,2.929877964455780415e-01,-1.338650515923946738e-01
-9.055548353557109076e-01,6.405044147934483290e-01,3.587550707413923456e-01
9.300799729144996197e-01,-8.731503314036632712e-01,2.541811887135799752e-01
-1.113099392036193569e+00,4.689399320248466840e-01,-3.121290302056561328e-01
-9.228034228241411840e-01,-1.016403533877847210e+00,-4.035093112292300471e-02
-2.933305882323403776e-03,8.654603150305929526e-01,-3.500362991379612487e-01
1.027322967330598802e+00,3.611618098234533475e-02,3.739563768371738095e-01
6.669638648228613798e-02,-1.347204153712670882e+00,-1.375710807483512266e-01
2.160412893198414008e-01,1.191040271913514248e+00,-3.103628410858250142e-01
-4.197314791685295421e-01,-7.752356897135102010e-01,-3.558078567060660169e-01
-3.637910147713159792e-01,-5.100642192893115601e-01,-3.357109850704070864e-02
-5.375200857060787873e-01,-3.189005883219089843e-01,5.066177361525459359e-04
1.130581702700854230e+00,2.930861432731088692e-02,3.513887843600377869e-01
5.072477450986546677e-01,-4.177928826495331815e-01,1.519260006468007018e-01
-7.379833165510606419e-01,7.796441646181012652e-01,3.677206739218243925e-01
8.211837770642193002e-01,4.933213434573687772e-01,-3.726373258524242615e-01
-1.247531601376479227e+00,2.735365170689075254e-01,2.525926929532560927e-01
-9.266668009716805265e-02,-1.230146745447282974e+00,2.933275428298702803e-01
-7.584864377393157886e-01,-4.679814177754779703e-01,-3.588818844682019615e-01
-5.556372200704455810e-01,2.914990337428163270e-01,4.287157512911674018e-02
1.288806786646072622e+00,2.531456280259455904e-01,-2.058759297620000317e-01
4.834423035419077030e-01,-1.275700989701037402e+00,-8.921832603084062230e-02
2.307193859985042228e-01,-5.934130940389209519e-01,9.289121459064426933e-02
-6.057988173119736031e-01,-8.876330405746963859e-01,-3.674935971517530597e-01
7.165943697260369616e-01,1.023566644363067990e+00,-2.799741935897691048e-01
1.013186950121070407e+00,-4.885074499150101057e-01,-3.536221104069079413e-01
-6.774111623720249220e-01,4.208553361656991454e-02,1.933969497208444799e-01
-7.614684657165411430e-01,-7.640328956720894293e-01,3.666500688900418137e-01
-5.467538770603840304e-01,-4.772496564643268213e-01,-2.557531239457821459e-01
-9.672810608291755319e-01,-4.802699141125498783e-01,-3.663782327773265068e-01
5.747607413017561395e-01,8.337819092643736774e-01,3.747852045384857389e-01
-1.032397399851800346e+00,-7.901969829295104608e-01,2.248688359843828977e-01
-1.842509583568983922e-01,-1.053918159138967026e+00,3.684272045622024039e-01
7.824569586102726459e-01,7.413114841716214043e-01,-3.668281091239792846e-01
8.342771071807302263e-01,3.130597184369144359e-01,-3.588336238165622527e-01
-1.168323410080090552e+00,2.810171205627031224e-02,-3.349303761105067445e-01
5.247681089502733709e-01,-3.434779518757035688e-01,-4.040516434560804948e-02
-1.196605020058079560e+00,-6.220532572037420493e-01,-1.381278101637905542e-01
8.474051664643429405e-01,1.072457784127428759e+00,-7.778708138534770611e-02
-3.605272153491034803e-01,-1.020815106851481691e+00,3.657877369922832855e-01
1.173727822311055213e+00,7.110407607767645910e-01,-4.489272404610578776e-02
2.179845933166077998e-01,-9.787980889145760921e-01,3.749897128634576138e-01
-6.260319812484458346e-01,-2.687188908449581956e-02,-3.469502331246984705e-02
-5.827110273207077862e-01,-2.931476284384694764e-01,1.404480331985372143e-01
-1.151462972216121372e+00,-2.906888923907671729e-02,-3.428887577060140135e-01
5.957488487976845271e-01,1.911611698868626863e-01,-2.235751005473293404e-02
8.656445270933648128e-01,-9.494802692292498847e-01,2.438902186904408076e-01
1.007377581763416075e+00,9.262971366106720339e-01,6.943324256292299212e-02
-6.806918542676427819e-01,1.069330502562110263e+00,-2.627077734426983002e-01
4.791392678792207871e-01,-8.341764463803776897e-01,-3.730686810149457244e-01
4.059854723525397335e-01,6.261075285281887393e-01,-2.760751684211886769e-01
-2.575144166657268308e-01,5.911946007088813015e-01,1.203733229749641837e-01
-5.844328374432637974e-01,2.250321599085665925e-01,-3.071139407529241763e-02
-2.720257775039534032e-01,-1.250979319514912147e+00,-2.492092423584346683e-01
-7.660813677084861439e-02,-9.675262884494144622e-01,-3.738421580446636971e-01
1.262004638441629467e+00,-4.112148194917483179e-01,-1.830103664346719450e-01
-2.280476612380882562e-01,1.063196862061284165e+00,-3.646777936623671890e-01
8.425321352693888599e-01,-3.169215635051052526e-01,-3.614668263937587112e-01
1.346691766026204773e+00,2.767358445500553987e-01,-1.124298418905124615e-02
3.422948127069478375e-01,5.235106483789411236e-01,1.902916735020317163e-02
-5.405178231411097295e-02,1.186309933718167287e+00,3.247360394876145362e-01
1.055145815069111981e+00,8.024489759017574553e-01,-1.860091388264515644e-01
6.659627206384952647e-01,3.275297111889125534e-01,-2.722807214310714041e-01
-6.267724905725354789e-01,-4.861597499528265143e-01,-3.128358559165952957e-01
-5.334724996242276029e-01,3.813275968005250816e-01,-1.487098445411351721e-01
1.312413349141215768e+00,-4.086406851977160692e-01,1.815445719778953013e-02
1.065994108961280107e+00,1.787188181851136204e-01,3.661758475723964623e-01
8.720548097517831776e-01,-5.088230291380643200e-01,3.748759773940403828e-01
1.035326051068500508e+00,2.161848849902551495e-01,-3.705412268676760990e-01
-4.663344883463042545e-01,4.192927206780209248e-01,3.977916200396012375e-02
-2.241929375547726533e-01,-1.264628729861769108e+00,2.444821961049474246e-01
4.935372571723322110e-01,5.233231386233098137e-01,2.487035206959387901e-01
5.310223349817827510e-02,7.468654382300748962e-01,2.783861757143009097e-01
-1.962009648081106464e-02,-1.271456249009461859e+00,2.585619854342951496e-01
1.333521201470611706e+00,-3.281687076332535646e-01,3.558804355412650139e-02
-4.867243133074010686e-01,-8.303219865125361920e-01,3.731165753250721417e-01
6.155734421763951053e-02,-1.045058864964530709e+00,3.720593754764860428e-01
2.828545186937833633e-01,-5.618068762243718650e-01,-5.458627788939893200e-02
-1.079714104561129817e+00,8.393806429308625638e-01,7.410694577069049105e-02
-6.172224499746774562e-01,2.018147721806632655e-01,1.330027663150278872e-01
1.044352223776892741e+00,5.543148028199790245e-01,3.276824671578781323e-01
3.880708785009225337e-01,6.957094256469437132e-01,3.150609631673203515e-01
-3.318972303432031201e-01,-5.932143601393209398e-01,-1.951011527754913932e-01
6.210977583633606192e-02,1.346143969548313724e+00,-1.407689217996035969e-01
-1.539840829259432053e-01,8.246132858741465066e-01,-3.386166251156110252e-01
-1.121922884832819545e+00,7.937145589738604512e-01,-2.294216169416225456e-02
-1.007822402550343055e+00,8.348629555439082139e-01,2.129032321989714482e-01
3.705120094817302423e-01,-5.313766480436213913e-01,-1.287543664937854659e-01
-1.192078521265965252e+00,4.866297691435882422e-01,-2.406726141062642266e-01
-6.008447199520806636e-01,2.767881932307740267e-01,1.614471355081872339e-01
7.077284930910737737e-01,2.100630706302962763e-03,2.349557161098506375e-01
4.930794858480655463e-01,3.871504217792281488e-01,-3.777401593624138409e-02
-2.217498576396540189e-01,8.726657113664956222e-01,3.615309808110706569e-01
-7.603884426934605367e-02,1.057636740126947750e+00,3.701092684035317548e-01
6.523101277475850113e-01,-3.391601241728565141e-01,-2.655425051126545921e-01
2.400659578670734026e-02,1.230896537032401872e+00,-2.953026191392580380e-01
2.981088331756593934e-01,8.630465188773246421e-01,3.647878933758049724e-01
4.205636033702165322e-01,1.172344572211133862e+00,2.834707714918015542e-01
2.741217986835714493e-01,-9.339560882603011871e-01,3.740520763304651108e-01
-1.156380270080074046e+00,-6.139880343581014532e-01,-2.120731275609217537e-01
1.212279390588161254e+00,-2.286523879934279357e-01,2.933097519926152752e-01
3.214603131843321582e-01,7.437159315048660346e-01,-3.234301612390009795e-01
-5.461715148476022907e-01,3.062071575663563583e-01,2.936946287020788735e-02
9.591474355026169407e-01,-5.268417589809366586e-01,3.629457514262295348e-01
-5.555174290122618513e-02,-8.377697577726658240e-01,-3.389688734863306463e-01
2.853988150186165598e-02,1.126911850197275244e+00,-3.527414567731391726e-01
-1.275508891255062172e-01,8.333996556166768377e-01,-3.406003805352520453e-01
1.278671448938369704e+00,2.869798396261704077e-01,2.103024134210386142e-01
1.369435683388895209e+00,1.156205523186455419e-01,-2.277270855666313487e-02
1.667808261126076108e-01,1.109129366933213623e+00,-3.547375644079543422e-01
8.421872982045954803e-01,-8.202929597398241901e-01,3.313171023341229815e-01
3.441501145496667635e-01,-5.404981059397970800e-01,1.075822279146637916e-01
-1.362006675719962479e+00,-1.013651768629663663e-01,8.267280143158878269e-02
1.255020484836590455e+00,1.758292849495672952e-02,-2.748212491105162525e-01
-7.757975674125083820e-01,-1.114745299461111117e+00,1.112088796117076117e-01
1.191326132695507134e+00,-3.524577440369615067e-01,-2.861495224793171310e-01
-1.793051503915721878e-01,-7.030265836212573616e-01,2.555236364470689914e-01
-9.887114799210101612e-01,-2.915951341071826852e-01,-3.737318278716414421e-01
6.285980102140529269e-01,-1.815753084345929635e-01,1.453089571636115296e-01
-1.917046490115577595e-01,-1.229783299448863332e+00,-2.842155007624851959e-01
-2.661718099575478558e-01,-6.026780310025099396e-01,-1.556723109654266912e-01
-8.115897204275443477e-02,9.064761978614892524e-01,-3.640650654527255448e-01
-1.266758204386079445e+00,-5.068448299264478596e-01,8.855959893165128716e-02
-9.051377906544083585e-01,4.981556770407254975e-01,-3.735304108199432038e-01
6.328890791091216217e-01,-3.322563327295744440e-01,-2.434902112672347463e-01
2.891049909063969636e-01,-7.733328381784444483e-01,3.319815588169291454e-01
3.880371713151082314e-01,-4.905033625902135985e-01,-1.801491285984444662e-02
-6.543047893851301477e-01,-1.054060000428843624e+00,2.876165512083160847e-01
8.280304407113329990e-02,-7.884643700747960837e-01,-3.125592874681060174e-01
-5.428725088209920835e-03,1.069284638128659592e+00,3.685413533856542467e-01
-2.979277177780925157e-01,-1.279025849920299329e+00,2.061293351108742233e-01
-9.380870053135853537e-01,-3.735103183971489327e-01,-3.748742295452869300e-01
1.338510085414019279e+00,-2.608094046259235577e-01,9.143203436963168174e-02
1.720557667713006333e-01,9.100486517697724542e-01,3.676604414109664321e-01
1.235998477911179672e+00,-3.259820344548718940e-01,-2.513854677820728800e-01
6.280016075234667872e-01,-5.647889913661612304e-01,3.412918940389948474e-01
9.173219824506337883e-01,-6.611101648539203790e-01,3.514756561733676787e-01
-7.232235316513724310e-01,5.079311743525749545e-01,3.565321652847593392e-01
7.945903843534986022e-01,8.303008756538368118e-01,-3.440199345211453763e-01
1.040114351381922431e+00,8.036542234621122383e-01,-2.043661733774913281e-01
1.345463728640770684e+00,6.686742374724646137e-03,-1.458366604083275730e-01
-4.121530448402802721e-02,1.374354555141248824e+00,4.548328657287458755e-03
-6.063809262110664289e-01,1.561151777074258618e-01,2.940633091339391048e-02
1.366732441700874601e+00,-1.505432765139625984e-01,1.064470767250295068e-03
-3.601682329985088638e-01,6.028853400666391860e-01,2.280034010416218671e-01
8.433252036013628716e-01,9.966316315103930235e-01,2.173972745201822598e-01
1.031597102754246764e+00,-7.560411358859626674e-01,-2.505892142669978728e-01
-5.316771729464815355e-01,-3.830232629633578689e-01,-1.476170203516002366e-01
9.766623208416984614e-01,7.385730862313100165e-01,-3.003867877099545280e-01
7.134570868809261279e-01,1.567257446843321744e-01,2.607252887353805892e-01
-4.517327447465085410e-01,-8.061431637931958383e-01,-3.672350738191275110e-01
-2.618691705356511745e-01,5.675082277090329752e-01,-3.103277763004630603e-03
9.535002397801836116e-01,-5.615648141649844938e-01,-3.595356070761234202e-01
-5.368613049069538290e-01,-1.128774695845931708e+00,2.795613032460676495e-01
-9.690596209564510399e-01,5.951944606295448414e-01,3.489813587246547444e-01
8.805803819803614818e-01,-7.647265674048776551e-01,3.361148349543218727e-01
9.901614042321092990e-01,9.421148144975192151e-01,7.823649322883451107e-02
-7.072018355950885349e-01,-3.693326373549528641e-01,3.158392003277609716e-01
4.013671284500707759e-01,4.806530515231246525e-01,-2.994099864197554903e-02
-1.151838321050867142e+00,-2.759110623463938428e-01,3.265165620953043302e-01
-1.285585702588688761e+00,-4.078629256863503527e-01,1.378758941348656730e-01
-9.507743964215257249e-01,-4.090600575453665066e-02,3.718704883997777100e-01
2.793180119825910412e-01,-5.591235755432422128e-01,-2.763071099808030954e-03
8.382964581571911156e-01,1.980459523105885800e-01,3.484358011633141849e-01
6.300540426408464123e-01,-3.001451033435327820e-01,2.221634407840140657e-01
1.242033441144706485e+00,5.821563147198810517e-01,-4.966121392434755255e-02
-6.116934333489500997e-01,-1.455447570785010636e-01,-5.304276540259546258e-02
-8.631592345302490088e-01,9.509020840027385124e-02,3.511431433972472260e-01
5.882256608881377691e-01,3.616861131673783092e-01,2.117802995353264828e-01
-6.431859121564907911e-01,-1.023793714158767326e-01,-1.379184951653919800e-01
-6.290488345014675353e-01,6.749357523178136642e-01,3.669310961723237785e-01
-1.180335170290896185e+00,6.938434340940456968e-01,6.590147265694930312e-02
-8.899891943748876322e-02,6.188106369355702574e-01,-1.154974404369037318e-02
1.160194280282383028e+00,7.342840665709453596e-01,-3.834356719200982672e-02
-7.377591114896576707e-01,6.720162931819717578e-02,2.710116815807475654e-01
-3.040925134964799978e-02,1.176848110026057270e+00,3.304703531828592222e-01
6.306488528221415590e-01,1.329469326919705263e-01,1.193805125346457385e-01
9.126333109946581645e-01,-1.025449188625622732e+00,4.100747540840881528e-02
-3.047252835194063092e-01,-5.519451063268642210e-01,6.385568172739725101e-02
-3.209739538866592246e-01,-9.787887014423346521e-01,-3.737921603978569540e-01
-5.323239550777011386e-01,-8.422879864449737131e-01,3.749827431288580426e-01
7.077095124549797056e-01,3.904855242488882161e-01,3.222918439669723023e-01
-8.109889216243529875e-01,3.366340100668403501e-01,3.546274843167815383e-01
7.208686000522270820e-01,8.290125830413117569e-01,-3.618063130007691530e-01
-6.491831053948284858e-01,2.972839020589020942e-01,-2.425637653406493843e-01
-1.047320795896912182e+00,-8.433204276157878487e-01,-1.477999309375188641e-01
-6.852076518866001553e-01,1.045434083022671740e-01,2.155459972771126553e-01
5.907811547521746309e-01,-4.449945489066314264e-01,2.698683703146852464e-01
1.184428754615507867e-01,6.605372761342211962e-01,1.800879076458271888e-01
-6.777338930986780419e-01,-8.899264502334552907e-02,-2.012100164477235720e-01
-3.987083832498958258e-01,9.289619466098630873e-01,-3.748412673799045858e-01
8.868084716672129941e-01,-9.447149633596394480e-01,-2.305838357129198490e-01
1.002508140879223131e+00,8.494186781719182955e-01,2.050454995750621845e-01
-2.257228835283330293e-01,7.458756072541050663e-01,-3.031646298553662966e-01
-1.287478110214833160e+00,2.455550058630222299e-01,2.099984818808242337e-01
-1.373940948703838094e+00,2.912811855498564223e-02,-2.371030211332641330e-02
-1.460515461248989844e-01,8.848145503515163490e-01,3.605165494555648276e-01
6.679197265033339770e-01,1.201369053926489405e+00,-1.824163317957776601e-02
-5.813480320918529287e-01,-4.571573419537230953e-01,-2.698134692636618981e-01
-7.249303881766032687e-01,7.486497129279615637e-01,-3.726277721988651703e-01
-8.167241997827849875e-01,-7.740766421651794627e-01,-3.534577374384013093e-01
-6.423494656712414042e-01,2.722013022340882271e-01,2.218231669387560334e-01
1.108850655463233664e-01,6.506651808096519662e-01,1.582916730625180401e-01
-7.683922265454523615e-01,-1.107787443684492779e+00,1.392402837534698623e-01
-7.809103272551558561e-01,8.341172969804692139e-01,-3.468220244884795411e-01
7.016052686197720156e-01,6.075670539922053415e-01,-3.680445484336032358e-01
-2.450222802321101179e-01,-5.749769702886428080e-01,-2.379162106953624546e-03
1.019584766030602552e+00,4.459682728455610090e-01,-3.576161380804350198e-01
3.657429476047878159e-01,-1.286917202435815755e+00,1.626710776571382855e-01
-1.197488580442440664e+00,6.190777015697985775e-01,-1.395954692200864766e-01
-1.670792421955551998e-01,-8.392898791803156122e-01,3.461494634630664646e-01
-9.922807185821272968e-01,-4.943700420576964127e-01,-3.589264803135697179e-01
-6.289006447288000290e-01,2.063204017186838213e-01,-1.621707496641675295e-01
4.582363827289603897e-01,1.292740974480249161e+00,5.072256144775549869e-02
7.943462938491341330e-02,7.634634991290581985e-01,-2.942926427311404747e-01
1.282578975982529290e-01,8.999113050429508043e-01,3.637924484282614723e-01
-2.579529811297565089e-02,-1.365596933006006930e+00,-8.237535588375960449e-02
-6.002817568300565787e-01,-2.934996424957435068e-01,1.747234719995863772e-01
-8.764372775894160306e-01,-1.010469402768107594e+00,1.632389675809698404e-01
-6.322401825172626610e-01,-1.159327320383420588e-02,7.386391904266252639e-02
-3.424846984837454644e-01,-6.618628529733846522e-01,2.751617394788077875e-01
6.182265779634089631e-01,8.490534036933928830e-01,-3.716134452576550506e-01
1.321423591017314436e+00,-3.541191469619258680e-01,7.186258571291506692e-02
-7.313072633232421405e-01,-6.335669506831549391e-01,-3.735962472392467260e-01
-2.634652799898020703e-01,-1.152582969077300179e+00,3.277001177731442283e-01
9.492496543427574041e-02,7.563722263020037362e-01,2.900453937295602858e-01
6.277558597810040109e-01,5.918267311112167944e-02,-6.421766125451858209e-02
4.057669557001418736e-01,8.380610860653401328e-01,-3.686206627455189122e-01
7.329064979418659087e-01,3.752767001998777996e-01,3.308123206786530712e-01
5.146967419025662016e-01,-4.236886233095822907e-01,1.717674566503206157e-01
-2.520557750961296972e-01,8.295303608775261850e-01,3.506143695050705222e-01
8.231545907597129785e-01,1.079028087046345119e+00,1.142858412403070234e-01
-1.301632957958204218e+00,-4.401562474392540225e-01,2.681585141064205674e-02
-3.518648942707796046e-01,6.144146205821058304e-01,-2.353331988269776187e-01
-7.109194819681868838e-01,1.410720201897175397e-01,-2.547147936792547585e-01
7.278744275822804921e-01,-9.341748241079531612e-01,3.266058474278529244e-01
1.277760971047476657e+00,3.401471333033680433e-01,-1.917631009693438471e-01
1.004918770718489923e-01,-8.219139489445089763e-01,-3.332459627941587454e-01
-2.654493426466490447e-01,6.408459261003768281e-01,2.162710009600365413e-01
1.142283223526874725e+00,7.735021770747470271e-02,-3.458746044329470415e-01
-4.792506481306452876e-02,-1.011759437498263248e+00,3.747782656180408956e-01
-6.373650402614985389e-01,-5.745171845372607500e-01,-3.471083315189332219e-01
3.703012898294191779e-01,1.254068102322451139e+00,-2.144973207805510040e-01
5.151598314835837966e-01,-1.128421862126649522e+00,2.877620290899206568e-01
1.162292404211070496e+00,-6.143357753958341577e-02,3.372787133809840854e-01
-2.301484406164918117e-01,8.664372126745680802e-01,3.604292278364677471e-01
1.041299656045185484e+00,-8.531882396457162177e-01,1.441371630791143943e-01
-1.905164636932542011e-01,-1.319807677040629956e+00,1.714966725240458512e-01
3.386623158906987285e-01,9.632124647239934667e-01,-3.744107300252934589e-01
7.089747652825675317e-01,4.119572365235861233e-01,-3.289603283745758944e-01
3.676622787831370087e-01,9.763316002735457078e-01,-3.724959874583036457e-01
4.559605811924919982e-01,-5.455975032543617376e-01,2.390117842058848696e-01
8.262401671044047879e-02,9.683981394948799615e-01,-3.739469442021055023e-01
-5.833434563173273135e-01,2.315088230446908368e-01,-4.411020621851957646e-02
-5.871512818419276636e-01,-5.870232341671117737e-01,3.343884414663182425e-01
6.465636203851851116e-01,-2.962967768391676082e-01,2.392322905221370144e-01
8.430531342842761955e-01,-9.906411267575743196e-01,-2.239150148200073076e-01
8.476780597874725709e-01,-2.453882238675101080e-01,-3.561100751083872695e-01
8.158381424481362387e-01,1.325234077760239215e-01,3.324660601363434997e-01
6.269905021157826663e-01,-1.092327484026165196e+00,2.707282397587518208e-01
7.133858639576300398e-01,8.741951340033402018e-02,-2.480076291937413635e-01
1.952768297608503401e-01,1.122440191645633911e+00,-3.481672654071790163e-01
-1.282831641064319017e+00,-3.770039487076450313e-01,1.643184203754864126e-01
1.337310058869634277e+00,-2.585607890521509633e-01,9.759992566922934265e-02
9.170234885375604106e-02,-1.060000766142626283e+00,-3.695052294463631593e-01
7.837662849784291508e-01,-2.020131496308292807e-01,3.229391626178156338e-01
-9.373516076128295405e-01,-7.575915026623488702e-01,-3.138578377262688512e-01
-6.720161307731762346e-01,1.124974945901565382e-01,-1.977326171880052774e-01
-1.206493507608229931e+00,6.164441431497008628e-01,1.212579087477537454e-01
-1.064200029637008438e+00,6.260087992895727593e-01,2.924982668364344840e-01
3.903406434752568765e-01,-1.307025914938694466e+00,8.988442964674096813e-02
-8.812344600296205810e-01,7.764762130275681962e-01,3.319170389915416242e-01
-1.086234343517625156e+00,7.480264252541943826e-01,-1.973310610209489946e-01
6.164750896696189475e-01,-1.451494989112343537e-01,7.861209853897191402e-02
5.116505813141574155e-01,-5.831863538446376838e-01,3.006113148027492743e-01
6.051795599151027494e-01,4.172639920305357131e-01,-2.654159240638515604e-01
-8.088259533890465036e-01,-5.527155562633817576e-01,-3.744468687305470556e-01
-9.400671236243803852e-01,-3.604353070399077819e-01,-3.749383995212635101e-01
-6.219783276692900653e-01,-8.861229748073477797e-02,-4.933067478458909305e-02
-1.053280306299335667e+00,6.261575968534965897e-01,-2.997402125053545974e-01
-2.957611003740961420e-01,1.013967703361495554e+00,-3.707614800330445992e-01
-9.105939764898464128e-01,1.004583813424535288e+00,-1.182584781636914356e-01
2.898882432617234106e-01,5.908488503645513701e-01,-1.541141826701286077e-01
1.581600983068703892e-01,-6.499113910784234394e-01,1.760228392683244603e-01
-3.421020477325834586e-01,-1.059456536709891150e+00,3.574682118012671439e-01
-1.280135458795557790e+00,-2.741822136503438423e-01,-2.122256260125386929e-01
1.195900218524828640e+00,-3.534068935314350623e-01,-2.821403393608431509e-01
-8.887175399320562663e-01,5.897338026843986780e-01,-3.690411345853966685e-01
8.382316645164734625e-01,6.067670188284775001e-01,3.733823514643630492e-01
-8.846860054211492796e-01,-1.047888875560088362e+00,5.183023038613862599e-02
-1.460680819327491442e-01,-6.887296827863090831e-01,2.302993295145785158e-01
-3.421357334081785440e-01,-1.290169369168887359e+00,1.689921116133533963e-01
5.001461428138525012e-01,-5.815432781737517320e-01,-2.938555959898743741e-01
-6.534810602418017478e-01,1.078872418160649715e+00,-2.689262136629432254e-01
-3.072689713948916213e-01,-7.627115614504335062e-01,3.302125543944604558e-01
2.924857553896467177e-01,5.531896485122594909e-01,2.375111784153096164e-02
-8.200168554917126595e-01,-9.534942749143806573e-01,-2.725121910253490154e-01
1.047059249872904552e+00,7.155020422065710983e-01,2.621171302817122406e-01
6.549614169059347901e-01,-1.680560680886313552e-01,1.891153229905296607e-01
5.606393270908682780e-01,3.181176184065379609e-01,-1.196629058612800889e-01
9.178166836924432914e-01,9.417320321204470934e-01,-2.034571340554705010e-01
-1.090744495490077126e+00,6.340740882496408437e-01,2.686291622213138330e-01
-2.453039264783458961e-01,-1.351800752991249022e+00,2.899379705251209360e-02
-1.204235731056668701e+00,-1.045031181351036564e-01,-3.115182109344756811e-01
-1.176152423440287587e+00,-3.841393194251769422e-02,3.307173779633283406e-01
-6.274284783794663589e-01,1.262565062666437532e-01,-1.050192860010980972e-01
5.408057946175046093e-02,7.303592826665201709e-01,2.626655294417078457e-01
1.785773207891084846e-01,-6.337863136640785600e-01,1.548490186770596355e-01
-4.483918422403625481e-01,-5.783812919740204395e-01,2.621291446457339469e-01
7.395194141341916438e-01,-6.110363616248420948e-01,3.727846848906426480e-01
2.984515166054637625e-01,1.180898981936537417e+00,3.051035298101020810e-01
1.946535261868761746e-01,-6.004375412621137942e-01,6.791619464935286232e-02
7.275497844992341312e-01,6.902178729452529415e-02,-2.610847008103024947e-01
-1.029500792402238130e+00,-9.084209869830587314e-01,3.877786904763411147e-02
7.438650700819338102e-01,-8.925458130389890554e-01,3.382583804866826083e-01
-5.564327943989764158e-01,-3.425188704138129037e-01,1.431646955925489628e-01
1.168979754356012757e+00,1.843339911644912288e-01,3.270788685014679453e-01
-1.050669877352421899e+00,5.726440379091602972e-01,3.193387660360217373e-01
3.743389822529452071e-01,1.011605569253418491e+00,3.666605106165510275e-01
8.330118864635479570e-01,1.077846707090877709e+00,9.703926918193762907e-02
3.645084213234738857e-01,1.325738771513558456e+00,6.914602157757016379e-03
-8.545721470706612033e-01,-8.571454400799307649e-01,3.104353429732178427e-01
-1.355096451507837307e-01,-8.413147719672275926e-01,3.446270005274894022e-01
-1.132566434407095368e+00,7.760242049829161326e-01,-3.940424114129843086e-02
-2.351568781494906557e-01,1.321312870503055681e+00,1.536535075151334861e-01
-7.187465575854095068e-01,4.974464482337773164e-01,-3.532336524960021928e-01
8.424806422291900576e-01,1.084209747088167752e+00,3.812844407730032331e-02
3.765017517594760887e-01,-7.146081452078306695e-01,3.219549869811991205e-01
5.781295532699994855e-01,-5.936389955821869124e-01,-3.335567210107536207e-01
8.724389791220806822e-01,8.281144768845578596e-01,3.153794360729063051e-01
6.142012489339795378e-01,1.690931985653102987e-01,9.430798563149038471e-02
1.687561259246811440e-01,6.280957286627032454e-01,1.355905496493802209e-01
-3.391239663641458790e-01,-5.333144563317819831e-01,-7.213964981081000261e-02
5.123555875110755720e-01,-5.325620606686590763e-01,2.692719614826855623e-01
6.330954398275665529e-01,-8.194457094417559317e-02,-9.926506692810457833e-02
9.461920533108775233e-01,8.603149209959588539e-01,2.507499977804030777e-01
-1.866145426472946844e-02,-8.736384119434114082e-01,-3.531403033912267064e-01
1.057852990324752218e+00,1.872746707546757150e-01,3.675652530764856318e-01
3.553099071633706862e-01,-6.766402643019271412e-01,-2.916329013487739541e-01
-5.285337913990658665e-01,-3.630505100522884443e-01,-1.090716540548965774e-01
-6.853080232268121685e-01,-2.063773080002402338e-01,2.445472391123412748e-01
5.032232081642897814e-01,-8.505926478250911416e-01,3.748175075626697383e-01
6.557180657960683945e-01,-1.147325406804224936e-02,-1.488759520503367684e-01
-6.901747132685948083e-01,2.153609992234202242e-01,-2.527708933696496407e-01
6.238996816935827860e-01,-9.199417055080692796e-02,6.482476038842599486e-02
-5.405541936157377547e-01,-1.258313230020145390e+00,6.394642903109792886e-02
-4.623988972587189487e-03,7.432895249208657518e-01,2.733717545274118588e-01
-8.359598133150873966e-01,2.453655794616307895e-01,3.521959833290739250e-01
3.990025767583865735e-01,5.333322299207854389e-01,-1.706291023936261642e-01
-4.251080351325222106e-01,6.907415085857522286e-01,3.239319104500424373e-01
5.931960831093823217e-01,-3.929596051251775246e-01,2.396241842156103252e-01
4.233532802290909669e-01,4.622000801715766549e-01,-3.652481240365927639e-02
9.465270374540871723e-01,2.073136342777384955e-01,3.737135310520424691e-01
-3.846226960308753995e-01,8.532371869928487840e-01,-3.694846346863862041e-01
-5.005783386778425159e-01,6.030154605801817391e-01,3.063413183209192647e-01
2.726457982360135923e-01,6.544026252356209827e-01,-2.364358982583857904e-01
-1.018049160551186327e+00,-8.976036394871848012e-01,1.140192048725567620e-01
-9.311237829373104624e-01,-2.053786977160123040e-01,-3.721064646067055448e-01
-4.212042043569507177e-01,-8.329370980247764455e-01,3.690348247024448081e-01
5.693802151790979815e-01,-2.756838995606094023e-01,7.516385577363206283e-02
-8.070046558041680251e-01,-6.465764263074844642e-01,3.734483641767865070e-01
1.265437473661655543e-01,-1.358127234993245169e+00,-9.012113859106642144e-02
2.647803379463746221e-01,-6.445165471536304924e-01,2.206491392860665535e-01
1.153415987954851119e+00,-2.823550951736369385e-01,-3.247749395207671363e-01
-6.382330347271090165e-01,-1.133097251914993775e+00,2.243572562821888050e-01
-7.424403471026563839e-01,-7.476820240837365183e-01,3.711377460202068823e-01
6.929276745099917090e-01,5.372461016912493115e-01,3.541854138848271050e-01
6.305671407817046159e-01,4.140199127404950996e-01,-2.833296652597759868e-01
-2.056097931842728876e-01,7.544085193857779092e-01,3.050713754829558200e-01
-1.790050900298214287e-01,6.249509151770468174e-01,-1.348418293718812166e-01
-7.840626211455269112e-02,6.255152319720405085e-01,6.346871963632488844e-02
7.386893931066869368e-02,6.845980538070939314e-01,2.088958412657083152e-01
-5.594247839924163523e-01,-9.227892295788744370e-01,3.665587446018901963e-01
6.363099345741510815e-01,5.602774849610640123e-03,-9.150124196403672250e-02
5.841410604948868990e-01,2.231102831680359944e-01,-1.497474740841663217e-02
-1.041406522557857040e+00,8.663343837434188399e-03,-3.727029842921426583e-01
9.395338590640815724e-02,7.925073304900778215e-01,3.159811042491110222e-01
-1.044821437663307345e-01,-1.101136994445159001e+00,3.596824097128888953e-01
-5.816094864962564337e-01,-1.139207553678896812e+00,2.504704974424144526e-01
1.171341778184978422e+00,7.164632153495162359e-02,3.324334958928328865e-01
4.610704882092355184e-01,4.503026440136179143e-01,-1.193010221214932109e-01
-2.632691635228219251e-01,-1.323599574699017234e+00,1.358492005353137966e-01
1.026603126845342384e+00,-7.278049490789141318e-01,2.717453125079586918e-01
-4.285809481293494927e-01,-4.551430094712389240e-01,-1.127062481452110153e-02
4.371349147114377276e-01,8.592244552058921903e-01,-3.732708802464921316e-01
4.172409637274904770e-01,-5.954041479571151596e-01,2.571404327358236541e-01
-9.505893716343001287e-01,2.974886525448910413e-01,-3.749792174964404756e-01
9.405710033632748435e-02,7.008344736234288774e-01,-2.341902310813639976e-01
7.774557404194000210e-01,6.535828506875298594e-01,3.746719966132296964e-01
1.212705614975020385e+00,-3.062013914748967780e-01,2.788219703097324365e-01
9.393197139862248246e-01,8.619988480553524290e-01,-2.550615323295388759e-01
6.169549596136485459e-01,-2.214569891388099010e-01,1.481311660384344031e-01
-6.969191924169888530e-01,-8.894747442424109918e-02,2.283896633058083159e-01
-2.397553779091458614e-01,-5.772226226657755088e-01,-5.114339240808167542e-03
-1.074537460222704244e+00,5.443448447414941382e-01,3.142993261146187489e-01
7.103645662905762048e-01,-5.388109832452990522e-03,2.382187062274623846e-01
-1.217502203040017550e+00,4.263053866513660806e-01,2.377744997680506789e-01
5.833768333008212403e-01,-5.271364913229057425e-01,3.081222066741234888e-01
1.834970502752596155e-01,1.199364747574844126e+00,-3.084141798859778572e-01
-1.083489110227757513e+00,-7.853666595032023912e-01,1.620286725330789268e-01
-8.664746948484864930e-01,9.242505267976011130e-01,-2.634259275744679218e-01
-1.022043734173048168e+00,-1.012370699652124367e-01,3.740234539361018129e-01
-2.981824489419841046e-02,-9.213121814098369500e-01,3.667545686263282700e-01
9.355761963049749608e-02,-6.300696439349281475e-01,-9.402085047484254332e-02
5.483088064181139698e-01,5.311586480379768549e-01,-2.909348972524503085e-01
-8.947548323035589557e-02,1.069475027647863952e+00,-3.677840286692944383e-01
-9.398730321737948090e-01,-7.685703371663690220e-01,-3.078671092604812198e-01
3.457341577764713736e-01,5.492365412666839752e-01,-1.319833765717346452e-01
6.340062662629556423e-01,-2.400210270534869350e-01,1.920644865040829208e-01
-1.070745470872819682e+00,2.677019233523471042e-01,3.603757759842063924e-01
-5.701434502487958689e-01,-8.783657711486591024e-01,-3.720199807202561049e-01
1.002784268139055746e+00,2.864798774545245230e-01,-3.725376740069163417e-01
-9.802225424514416918e-01,8.915314026594807206e-01,1.870569896295359857e-01
1.193761792350002571e+00,1.442700633304359326e-01,-3.156577708270009719e-01
-1.011569863853849283e+00,-2.759150851299742649e-02,-3.748096730759547524e-01
2.801329118316908118e-01,1.054580552834473384e+00,3.637528747284050068e-01
-1.080284622720101506e+00,8.506061417153328863e-01,-4.651198430206351063e-03
-1.432936843778786218e-01,6.543167333591362045e-01,1.777876610421369186e-01
1.268076688747956426e+00,-4.469513467639136262e-01,-1.480478518160592560e-01
-5.288015665544694155e-01,1.086538669963145631e+00,-3.117694057689584519e-01
-8.202525492070030788e-01,9.952463460809093942e-02,-3.323286267166298824e-01
-8.248101156535895262e-01,-6.630800301549701903e-01,3.704413220103324189e-01
-5.616314801498184517e-01,-2.883480697245785485e-01,6.859778280992644139e-02
4.543304809146598844e-01,-4.596735405390183771e-01,-1.246114731803290576e-01
-1.016600295456394187e+00,-9.258195300276781392e-01,-1.385353237520085606e-03
-6.911056408054349065e-01,-2.024585545626678487e-02,2.130548118851402495e-01
4.894912641266044862e-01,-4.062396256845339226e-01,9.059253796782211487e-02
1.355136228053127168e+00,2.258777133518392599e-01,2.957160215877017301e-02
8.471622786228060198e-01,6.702269214962426613e-03,-3.424525284597423336e-01
1.391530284961266760e-02,1.057122636180806596e+00,-3.706096777113395135e-01
2.829555356507149622e-01,-5.574230429509460238e-01,9.774681879491566722e-03
-2.394858126869457149e-01,-5.775922783339140221e-01,-1.430585391268818576e-02
-3.807004057917529605e-01,1.220423828704412461e+00,2.512075857463753059e-01
-2.574161120721965568e-01,-5.718082975060500006e-01,3.943039759864146176e-02
-2.963392724912396470e-01,-9.209849821269974202e-01,-3.735878453143501865e-01
6.974511218296968185e-01,2.264102806079828778e-01,2.636009991292355692e-01
