-1.850878201653180510e-01,8.793903453434974704e-01,3.610466038392727839e-01
-5.279459647529968214e-01,-4.188048237610681457e-01,1.851368847971113230e-01
-1.223196906179969609e-02,-1.354417903042939519e+00,-1.223674613260941763e-01
-1.001330712597386263e+00,-1.795922651194634956e-01,3.746003416151447718e-01
-8.005357975886983057e-01,7.819750646208700751e-02,-3.199132603808149677e-01
-6.979831637761642060e-01,1.098036276184543691e+00,-2.235242875882612612e-01
-6.583864873382067051e-01,-3.100677861317197581e-01,-2.578816943987645161e-01
6.104745328799420223e-01,7.593652792665289697e-01,3.741202230968128095e-01
3.370960554265803877e-01,1.209985810075279167e+00,2.739629352596780754e-01
4.937283812626423740e-02,1.291517034166743016e+00,2.347166485941648284e-01
1.528984704730730060e-01,-8.825106770234718567e-01,3.601912296482827069e-01
-1.152743537050745726e+00,5.385052903209008868e-01,2.578085100434998611e-01
9.618816420602585016e-01,1.680727980071957950e-01,3.742601266777175750e-01
2.603296468155893995e-01,-5.707977843237784787e-01,4.201265979165415970e-02
5.824437422161481415e-01,3.249946567816891507e-01,1.724025502958175804e-01
4.349562776547103438e-01,-5.055517709803605264e-01,1.722682670225686441e-01
-1.152387062345221036e+00,5.079122722589221040e-01,-2.708520787671424568e-01
-8.599330548264102481e-01,3.769830520978129096e-01,-3.699948720591899054e-01
3.436263464406644763e-01,7.008328992113493916e-01,-3.040776012657264160e-01
1.001267895187222035e+00,-8.643416236910386186e-01,1.909662416720189770e-01
1.142506114515291354e-01,6.549370171833891474e-01,1.681797924914915920e-01
-8.440241454458502490e-01,-1.042639447855444601e+00,1.550501339437416470e-01
-6.519417182313207437e-01,-8.377969108338443327e-01,3.699109197280135986e-01
4.527589477629045400e-01,-8.583773297269403635e-01,-3.738351019265337971e-01
5.783628651406161336e-02,-9.633655198334467595e-01,-3.733724621001658361e-01
8.144839944796220532e-01,3.956927029565787679e-02,-3.264418881061207922e-01
1.374913422643197158e+00,7.949535087825851387e-03,6.906012049440682019e-03
5.736603883342341614e-01,5.704830435186768467e-01,3.227340294892963590e-01
-1.989643851281115705e-01,-1.360322887068036390e+00,1.235504142486709873e-02
1.889087630469625800e-01,1.027760614121562721e+00,3.722929037638075811e-01
-5.946042750065071436e-01,4.464721463670473511e-01,-2.736183950379514340e-01
1.072720776226018691e+00,2.547582090279819078e-01,-3.607036074038659779e-01
9.837175407822373874e-01,-2.379395364627423237e-01,3.748052297232972174e-01
-3.723800440566640280e-01,1.044118870305899005e+00,3.589498987207720981e-01
-8.338604460415391939e-01,7.199387145529418941e-01,3.609599253443315781e-01
-8.505117532451715867e-01,2.138759396646476851e-01,-3.542510103444149738e-01
-6.391277858014986490e-01,-2.519093163766653043e-01,2.065042016599792363e-01
-8.407749139206529554e-01,6.985573792345002586e-02,-3.408614470786719419e-01
6.662666976839115573e-01,-6.394485797607572797e-02,1.768648341868578611e-01
1.100315900820873216e-01,-6.360398148901619253e-01,1.222522151307019189e-01
3.226483784402105481e-01,7.662720695634488433e-01,3.349760522135074026e-01
4.484974052098750219e-01,-6.984840117202629761e-01,3.342926648505109011e-01
-7.757036599002673505e-01,-4.226848090022310989e-01,3.564087589031337266e-01
7.035100040278955413e-01,1.045967601838216687e+00,2.697056297149239557e-01
1.190886351743614124e+00,-2.950776222199407231e-02,-3.225642933459760275e-01
-8.574126501560439539e-01,-7.617580838860623649e-01,-3.450198557342121775e-01
-9.593414244050898487e-01,-4.150268754280163619e-01,3.722578288617569564e-01
-1.065477657359929164e+00,7.342624905582931794e-01,2.328106620462658261e-01
-8.038944394932922011e-01,9.059715521494635104e-03,-3.196679972645875556e-01
8.754796865722829224e-01,5.847486903572799433e-01,-3.712637407107440835e-01
6.252939565764177310e-01,-8.380891237121783355e-02,6.617747122054527809e-02
-5.011809142983124632e-01,7.768332030115843168e-01,3.673156950777513585e-01
-1.166224751380911862e+00,-4.085430827886023519e-01,-2.916576594827054447e-01
-1.178028544800901134e+00,-5.773266040943318966e-01,2.082046566006525434e-01
5.250450393857731823e-01,-4.746378666790886935e-01,-2.350166602091520729e-01
1.041034892319125937e+00,-7.510339414515835310e-01,-2.452692460037687039e-01
2.390365861902171152e-01,-8.327389757023055950e-01,3.503817376231463387e-01
-6.675367053958066073e-03,1.369114889559321480e+00,-6.608467708358556347e-02
1.148605045954542714e+00,-2.310863886584966220e-01,-3.334237879174256625e-01
7.712417174013396215e-01,-8.188625757246351666e-01,-3.535966276299328803e-01
-6.919551085324187056e-01,-7.961259518369563359e-01,-3.709732628838763313e-01
-9.724383249275367347e-03,9.876712301071850497e-01,3.747988520778725574e-01
-4.056188576818221536e-01,-1.217194092911468628e+00,2.460410426194090672e-01
-5.670854254118047333e-01,-2.634368275893574363e-01,1.468919923330154129e-02
-1.303178378400805304e+00,-2.852620330713976846e-02,2.202691132983166100e-01
-6.152322245386198096e-01,-1.743632482669238426e-01,-1.031418590067964547e-01
8.433722704021609506e-02,-7.434448356441127892e-01,-2.778999945321167786e-01
1.030107200236485721e+00,1.094712532411008660e-01,3.732768889455244099e-01
-5.534519143947006642e-02,-1.092412306551644008e+00,-3.630758149179410532e-01
1.856082792189232278e-01,-1.299229781769760228e+00,2.074083393621806160e-01
9.255407111553193289e-02,-7.589372373078778766e-01,2.918784064253810429e-01
4.717459537344768639e-01,-4.458927701812655520e-01,1.323346501529898411e-01
8.315109500954691590e-01,9.345474917398223502e-02,-3.375991794520800116e-01
5.473501498374890861e-01,-1.203400418331661337e+00,1.921492393127672005e-01
7.087571774142651382e-01,2.512990379529178586e-01,2.812751401366038739e-01
-7.997831124657188429e-02,6.281794897462184002e-01,7.822845908798910231e-02
5.916176057891973095e-01,-3.308723815794121226e-01,-1.919579320867459415e-01
-6.402815183983830982e-01,-3.405419542646923592e-01,-2.551770811136243600e-01
2.666670844826780074e-01,6.600174732783665732e-01,2.399920563881424163e-01
6.572321900501530978e-01,-4.342695467859972180e-01,3.091494063549775073e-01
-8.150231492460136007e-01,-6.374322094879208978e-01,-3.733920621580085752e-01
-1.836054577470696836e-01,-1.213436366438448211e+00,-2.983004156797501860e-01
-4.680470097737118307e-01,-8.498806167622550145e-01,3.738172337615304208e-01
7.411970831233301027e-01,-5.286713142048531378e-01,-3.641436671975917805e-01
5.135187922525108473e-01,8.355313874254073347e-01,-3.745041139356116155e-01
-1.286455313526965183e+00,-4.723918938415410107e-01,-5.826658211091914619e-02
-7.970074051065078047e-01,7.898169669843779772e-01,3.545771312940794173e-01
5.620963365201241402e-01,6.771354564546478993e-01,3.552939960569094779e-01
1.970679703177617148e-01,6.109894122670956884e-01,-1.115784995168241506e-01
-5.842322933985264477e-01,3.154401042794902077e-01,-1.664196913755186802e-01
8.988650624848874005e-01,-9.714323673184825925e-01,-1.896732158344059116e-01
-4.518831593793263268e-01,5.883157009217436784e-01,2.719815228965553611e-01
5.616217420913613978e-01,-5.553332904177314955e-01,-3.105623046617404515e-01
-4.420881790863447347e-01,5.785127142369878017e-01,-2.582467760923578548e-01
-9.234429142110543720e-02,-7.240122171397930240e-01,2.601131151429689203e-01
1.079562601593178739e+00,1.854049658454179350e-01,-3.626706502946780986e-01
4.412085035766535324e-01,4.719293465712042224e-01,1.238761522118212582e-01
9.198346710470213516e-02,-1.072678687313661561e+00,-3.670900357750416787e-01
-5.340949308019348196e-01,8.478221730418049606e-01,3.749945170050271726e-01
-9.292853281874748073e-02,-1.253634840720678101e+00,-2.730160383024820558e-01
1.121220746459837825e+00,-1.044611877352533830e-01,3.531709734734144179e-01
6.678221673344211240e-01,-3.717249774684480701e-02,1.759789712072491463e-01
-1.723053074307843435e-01,-6.072966917048723268e-01,6.827289482290863076e-02
-1.660549654783079199e-02,-1.352641230727399391e+00,1.272684842183522957e-01
7.057296920103942606e-01,5.425846093978294871e-01,3.585645241801741490e-01
-9.061469015603178523e-01,-9.260481105442446292e-01,2.307066810039261617e-01
-1.304060705991572533e+00,2.585103349194469158e-01,1.791548657740559547e-01
-6.640589043088848675e-02,1.155644822603967503e+00,3.402978556849178826e-01
1.116194037262128624e+00,-4.278233381122216183e-01,-3.200836140761571524e-01
-7.043537350750772585e-01,5.655236293029490824e-01,-3.623147770528339362e-01
9.435659528969529697e-02,-8.362873790445892741e-01,-3.399005808826590647e-01
-5.740326173189547188e-01,5.367575739558351211e-01,3.078662830181366217e-01
-6.019090471071789628e-01,-3.944544164251878038e-01,-2.490502360140341154e-01
-7.108668885704810814e-01,3.099830681397246490e-01,-3.003844619094102608e-01
3.303627768127339603e-01,8.919285371522693850e-01,3.718039152702073968e-01
-4.778046216069994911e-02,6.416834344913133759e-01,1.162072923414116665e-01
-2.651007124227159339e-01,-5.671164705613546131e-01,-2.762293926498208749e-02
9.095434623845051192e-01,-1.945864876934504384e-01,3.684325401296449920e-01
-1.032581420668752914e+00,-3.566115629115493291e-01,-3.634312816433703519e-01
5.345809332169126904e-01,-3.306752646290847530e-01,-5.175079326878722491e-02
1.344166736064157097e-01,8.648321472193442050e-01,3.536295706905570047e-01
-5.652418640293566110e-01,-2.723315312663580623e-01,4.258266492712296791e-02
-6.101915510289435129e-01,7.750065597168596110e-01,3.747530099383105107e-01
-2.058046342335076995e-01,1.080724166686503285e+00,-3.613804990670985706e-01
9.664432188917703170e-01,-3.296547510721611896e-01,-3.744048244529368241e-01
-1.218857154582957847e+00,-2.775799385665154127e-03,3.045080661722546767e-01
-3.855437899782935274e-01,9.244675719285680993e-01,-3.749964103208864863e-01
-9.320724610819465517e-02,-1.371817126018330502e+00,3.879349593316867677e-03
1.318776202248333362e+00,-2.870827318811199347e-01,1.355048922790711430e-01
-6.458074988499575841e-01,9.854217735141577172e-01,-3.299614765106423375e-01
-8.679444712790769234e-01,-4.529819541831679452e-01,-3.744138063759506196e-01
-4.088293607140028318e-02,9.490802494919486909e-01,-3.716463870438144745e-01
-7.979919828845842833e-01,-1.070554357072611484e+00,1.680361119147526505e-01
-1.320264696971967355e+00,3.243559202786314155e-01,-1.066182909612356788e-01
7.696392993893675927e-01,-1.105862221958277616e-02,-2.959654421770229193e-01
1.323057482287940845e+00,-7.904625293227512950e-02,1.863571183482222171e-01
2.769201230604623198e-01,5.618925673926752351e-01,3.265821621538175790e-02
5.772448357002599728e-01,4.867777419548978690e-01,-2.839808972583979241e-01
1.246211918649648087e+00,-8.982033426011705457e-02,2.800042598054369725e-01
-7.444220736885055478e-01,3.487808538723078389e-01,-3.301041911419667074e-01
2.181829060235765394e-01,1.289741947661033006e+00,-2.138223729525391137e-01
-6.430173238997852758e-01,1.214919574948192915e+00,1.750611712563680117e-02
-6.327112952192408546e-01,-1.633642363057533631e-01,-1.433032310299372503e-01
-3.364280496911124518e-01,1.332052127419853349e+00,-2.895899824960275482e-02
3.655315178403266141e-01,9.401920882398473456e-01,-3.748979271670199176e-01
1.958840626042951394e-01,-1.357088423807816469e+00,-5.357909563800217212e-02
5.904496754943021619e-01,2.393576401274766507e-01,-9.457102031722372515e-02
3.695122610129860652e-01,5.707363810733329101e-01,-1.953668381920349029e-01
-6.111416958626326723e-01,-3.448167816458341250e-01,-2.272582595546064621e-01
-6.312908511706223358e-01,-2.796409759563961428e-02,7.165670122336920134e-02
-6.599140900473928761e-01,-3.316434279007800245e-02,1.597884267925358259e-01
-8.779854081325580983e-01,-9.454036244658977628e-01,-2.374913332459705484e-01
7.627155282600294184e-01,4.855992659822745416e-01,3.625514359148189758e-01
-4.247208609895301579e-01,-6.568756318223353263e-01,3.052840329611044012e-01
1.240559554014051491e+00,-4.013988779517801975e-01,-2.197283424560160237e-01
-4.028643264900253484e-01,1.045197303259302934e+00,3.552307212571811368e-01
3.588633113208550274e-01,5.881785262844358986e-01,2.095498900413029775e-01
1.168517774021683220e+00,-1.739303180392280934e-01,3.282105647069467613e-01
-7.913623896966066606e-01,-6.330346669716061525e-01,3.747603732490822348e-01
-5.899151908685029699e-01,-3.831565669873713276e-01,-2.294976658608571807e-01
6.249299051721433074e-01,-4.902394794338778561e-01,3.135315902382356246e-01
8.195988456458207505e-01,-2.107761968266956831e-01,3.420399877340015160e-01
1.200233063863138883e+00,6.655046894643535937e-01,4.416171673758802901e-02
8.453255154720429321e-02,1.246272639480978217e+00,-2.802787081470344832e-01
4.206908920091948501e-01,-5.035027206096537311e-01,-1.495753438365587940e-01
1.389337926538502799e-01,1.236592747705590689e+00,2.844412509243985365e-01
1.439665112241068357e-01,1.128546402926749570e+00,3.488063682189761483e-01
4.921197174704701194e-01,1.242387213532055057e+00,-1.659058904322154859e-01
1.005881442227053224e+00,8.245154986150050602e-01,-2.241653328805275347e-01
1.212393668022264226e+00,1.547037468961609263e-01,3.020620245286219085e-01
-4.248960438646404332e-03,6.893634193068369775e-01,2.100905750258727500e-01
5.319948561230352091e-01,4.366530622261686201e-01,2.084113462705029507e-01
8.233967916528073250e-02,1.283334226948732004e+00,2.425787343535091289e-01
-1.991810325332226128e-01,9.173913088470501132e-01,3.699666011916623587e-01
-7.270987932517488650e-01,-2.288219784882194741e-01,-2.900037052072715893e-01
1.780077214791916940e-01,-8.450893745542045199e-01,-3.493267440890103770e-01
-2.354863057791546366e-01,6.400743825649274354e-01,-1.987779253106700672e-01
5.935830207263198544e-01,8.241836251672846059e-01,-3.746717600566448203e-01
6.093468922730185255e-01,6.107850093922734258e-01,-3.489861300636417640e-01
7.809392166174117245e-01,-3.983799179915615829e-01,-3.541438300049341570e-01
8.526765363703465717e-01,-1.056927472734153106e+00,-1.116418865591794485e-01
5.880808659344677336e-01,-2.661346699101683755e-01,1.222817950258139885e-01
1.464675935740947788e-01,-1.295844061550786241e+00,-2.194334524259393682e-01
-2.124124735774265416e-01,-6.140425104900808506e-01,1.339616864303996846e-01
-1.170411084810117353e-01,-1.353222713312768333e+00,1.107438210820329005e-01
-1.216551086590830444e+00,4.927508141017387655e-01,2.072065218525888930e-01
-5.555933864153214108e-01,2.903197087934517029e-01,-3.743146565374762952e-02
-4.619251966823949562e-01,-6.987192715300423185e-01,-3.380135055320434567e-01
5.125790708836923670e-01,1.159655933495625790e+00,2.624141515050094631e-01
-2.702826409244512007e-01,7.609837303771437300e-01,3.218553141153472352e-01
2.157767582820619423e-01,-1.184508584058095115e+00,3.146558265725779568e-01
-6.300128257983255153e-01,-3.101732858165415219e-01,2.279399234387732287e-01
-5.885452928113547033e-01,-1.172186880403232490e+00,-2.085751012846709107e-01
-1.223272288380368167e+00,-6.219159082528622484e-01,-4.501787239718794964e-02
-5.100908767606421312e-01,1.270876360128251781e+00,6.443312464282371921e-02
6.560650032302642876e-01,4.987386944601202021e-02,1.537278447425867722e-01
1.168551107294085289e+00,-1.438671080211106623e-01,3.303989698861344859e-01
1.904070742257753593e-02,1.064711870538931793e+00,-3.693444345572630683e-01
7.039204453642623482e-01,-3.277835947030658947e-01,-3.011162127750464101e-01
1.318713857556146340e+00,-3.099991861606889443e-01,-1.218226419446172271e-01
2.351672221883415181e-01,-7.339207672532602755e-01,2.967086854079808989e-01
-1.028132077423131868e-01,-1.283840841252456899e+00,2.402273986308276488e-01
-6.175503336089842588e-01,-6.409481917435642107e-01,3.585181388235092470e-01
1.195986050443307303e+00,-4.964815332864127573e-01,2.315897563074891807e-01
-7.134103864701374365e-01,4.489107299648512073e-01,-3.405049533179649868e-01
1.150987168198082777e+00,5.570273462557353561e-01,2.509108836195421688e-01
-5.031907977106289120e-01,-3.779443552267248707e-01,-5.675294796173603606e-02
5.940955276661957773e-01,1.953044865290881615e-01,-1.675644951286090270e-02
1.230511672231874715e-01,1.094239853435565069e+00,3.611043198868069126e-01
-1.046782374053164100e+00,-3.862161324631996906e-01,3.566862090321327172e-01
6.022167485753139315e-01,-2.229695532485074794e-01,-1.121679380733736908e-01
3.671899660607629290e-01,-5.763708643136038479e-01,2.009669591218079809e-01
9.875702788229562268e-01,1.148172011013882249e-01,-3.749554887603686604e-01
-5.240418847672408953e-01,3.407292319560251137e-01,-7.401038027374481562e-03
7.118289197870559804e-01,-4.206132931187694379e-01,-3.326115910553149591e-01
5.157654201959519513e-01,-3.680529055985679587e-01,7.995124909069442620e-02
-1.772946751756318828e-01,1.251783625431560854e+00,2.660503912140541050e-01
4.854636408838856609e-01,-4.828273964986519728e-01,-2.029855933789900257e-01
-5.008102813196915748e-02,7.270748751407982713e-01,-2.589870146206110224e-01
-1.026704171351379563e-01,-1.316378503734655148e+00,-1.948949074011288030e-01
-5.241324559286946183e-01,1.264777818208541182e+00,-6.637446617396650095e-02
-1.081105851743415780e+00,-8.230834064000971395e-01,1.091284690747999775e-01
1.525889652024961171e-02,-6.273492449762283485e-01,4.352775233854466741e-02
8.637945020442405752e-01,4.763694356667396157e-01,3.747548450024460465e-01
8.853236107150004308e-01,4.286025373276841077e-01,3.746418616313060279e-01
-6.908803154934047841e-01,-1.188818374812221634e+00,2.350699768344606620e-03
8.074045507939674460e-01,-1.096303829312580275e-01,-3.260842454863351891e-01
-1.312663028177036839e+00,-4.037607612196458251e-01,3.507452742605175755e-02
8.386751703268658931e-01,8.372996555252364415e-01,3.261370459133415833e-01
6.273755326587591163e-01,3.915353589418235636e-02,-5.180872418641475907e-02
8.007547620151120871e-01,1.083308167230140118e+00,1.418602702332640575e-01
-3.086197168802444213e-01,8.071149577072083137e-01,-3.495111693567783950e-01
2.927653866141827765e-01,-9.005408348766261728e-01,-3.712264487117983291e-01
-3.800505304281012742e-01,-5.011861922867600905e-01,5.454498470824055423e-02
1.935996331231118750e-01,-6.561778783388375613e-01,-2.021353523277093500e-01
-1.265071093244241940e+00,4.073567505976618541e-01,1.798844167772350733e-01
4.440802136577401416e-02,6.238532617113284884e-01,-1.799111871765237194e-02
-6.167066222307162615e-01,1.175183511381310941e+00,1.832594292516600554e-01
7.828334007776861503e-01,8.550437552839734723e-01,3.394925309788637824e-01
1.225054863460179666e+00,-4.187988614965474921e-01,-2.319456889453373472e-01
-1.198799956911605902e+00,3.585274670872319880e-01,2.783721685311892347e-01
7.669330167328270997e-01,-3.073709380557246296e-02,2.942641626744064709e-01
1.248766683436275948e-01,-6.490367189491335065e-01,-1.601996008468608290e-01
2.012608973178452720e-01,-7.939470387676857976e-01,3.284591291374733824e-01
-8.178849167150842314e-01,-4.314948262334430962e-01,3.673680173432259388e-01
-9.043142732486242341e-01,1.802546686426683420e-01,3.668204403355280752e-01
1.325483970887311180e+00,3.232628195675156246e-01,8.880265543973787923e-02
4.365961144742170341e-01,8.904257996327642477e-01,3.749081954766865232e-01
5.440109118719398396e-01,-5.137893222512817104e-01,-2.779631549600950491e-01
7.682231578564767682e-01,9.464576516255451821e-01,-3.044111900494794742e-01
4.096984198642400488e-01,6.321153654921987108e-01,-2.824032214046044431e-01
-8.621043985019558598e-01,-1.093884129229634045e-01,-3.513806256175853737e-01
6.729636881850551422e-01,7.526908977888171481e-01,-3.748754258331896683e-01
8.942512132034096117e-01,-2.143574801229050364e-01,3.662761723902049349e-01
1.172672702946045087e+00,-4.898548787922394343e-01,-2.593311175345147657e-01
-1.278046507045375257e+00,-4.523925738477431457e-02,2.507376934013647585e-01
1.281696375654715059e+00,4.083633961735165796e-01,-1.465487278653323233e-01
1.651356866547130584e-02,6.277755468528324334e-01,-4.728182600839357652e-02
3.979892748346853248e-01,1.239764556070091173e+00,2.221999957093874767e-01
8.431062292389023272e-01,-4.634079884165472341e-01,3.730766313688396729e-01
1.260630884726826384e+00,5.471782531426967466e-01,-2.352528715832776299e-02
7.685011524666546245e-01,-1.096203185731102314e+00,-1.608491681735605139e-01
-3.617293264105670425e-01,1.013612520739855416e+00,-3.671714545858686396e-01
1.401002756279286499e-01,6.197541369959211899e-01,-8.767080039160153604e-02
6.127200251660025465e-01,1.651180412185372925e-01,-8.421450966604357435e-02
-7.362001102355365534e-01,7.967995223422852380e-01,3.652766047890491086e-01
-1.155163086072556355e+00,-7.362477744057879248e-01,-6.199296188086144549e-02
-5.739357035149219577e-01,2.588312191770211212e-01,-5.855444797900478948e-02
6.224862184489907690e-01,-9.924351064510692488e-01,3.334848168076663399e-01
7.856818552142029732e-01,-8.025659391987606250e-01,3.542109835644693394e-01
6.936311854183790926e-01,-5.448719161984155734e-01,3.559669268641200146e-01
1.771453310703550166e-01,-1.257940860463765631e+00,-2.598739745546932989e-01
-1.179116246445595317e+00,-7.006566161564710127e-01,-5.052186011053239056e-02
-6.363888175520140966e-02,-6.280572978555288843e-01,6.830491021594650713e-02
-6.188985368077788429e-01,-1.093616697289127249e+00,2.734659411568992060e-01
9.736049033557904187e-01,-5.718399306056565212e-01,-3.520703723553466613e-01
4.947022601521632867e-01,9.437353526031876383e-01,-3.692289893328690176e-01
7.865718356622695140e-01,-1.491818103123222494e-01,-3.175880594701744331e-01
9.558578499292084141e-01,2.189537816390673131e-01,-3.744986063376796737e-01
-2.126822090258308484e-01,7.621765665404578449e-01,-3.115557349760910144e-01
-7.763011194431935769e-01,2.734437314419722043e-01,-3.306273906211921187e-01
-5.163290760213679054e-01,8.349116128330680286e-01,3.745516752786759440e-01
8.972418088612786891e-01,2.835084463334171245e-02,-3.607735908803907932e-01
9.726231526075367062e-02,-1.275695994896304475e+00,-2.501230538377406942e-01
-4.008596101397979838e-01,-8.766185715325024441e-01,3.732606159083134423e-01
-7.512636471136641125e-01,-5.762534744660314789e-01,-3.712098063454898345e-01
7.910187301213191802e-01,3.107869468067391283e-01,-3.436415877328714008e-01
5.289417297523535400e-01,-3.759211563464110450e-01,-1.317848247076431889e-01
7.487892957441775188e-01,-2.002667811894845717e-01,-3.000808639554135571e-01
8.959557603690314620e-01,1.020497175396259504e+00,-1.116439512260765654e-01
3.716807360904832158e-02,-1.104209500014781797e+00,3.600481224013932779e-01
-1.254268602909691666e+00,5.592204749224787275e-01,-3.580213608160927319e-02
1.209909061927295859e+00,-1.051558796652283384e-01,-3.076159346482740253e-01
5.827157984225179721e-01,4.864927497084622909e-01,-2.873886178831173699e-01
-1.112851451863141744e-01,-1.205433242146422002e+00,3.103059852659400542e-01
3.170213805230486237e-01,-8.710242798758648375e-01,3.678107133351882774e-01
-1.081964868385246081e+00,8.481583131380131535e-01,-1.283854878367183226e-02
4.410497091520214075e-01,4.925530658257620265e-01,1.606638608399558188e-01
-5.508305886953176467e-01,-4.393100783788090324e-01,2.309576102769559935e-01
3.158694365146915151e-01,-7.253879606541749903e-01,3.114771163554068134e-01
-7.492617708345631344e-01,-6.947686217463715230e-02,-2.817035746580028310e-01
-6.483834642580850183e-01,1.625931699385914087e-01,1.752303481329580137e-01
4.504039567121030929e-01,-5.484192021168777798e-01,2.373431857167427605e-01
-5.197327536657341263e-01,-7.828960325578097068e-01,-3.701211903995462182e-01
-4.947503439443297624e-01,-1.073776820464299453e+00,3.277205587879064019e-01
1.149862658533006288e+00,6.876264870751842562e-01,1.586618099148260908e-01
1.227644769685456216e+00,-5.082382642128233652e-01,-1.805206672848025384e-01
1.257363779124015757e+00,-2.754463258115724122e-01,-2.411476759049520635e-01
1.062537667907451633e+00,-3.774975905673833565e-01,-3.526219297187395130e-01
-4.459018928700098638e-01,4.384793085499085752e-01,-1.674328191936981167e-02
-6.719746627009192119e-01,-4.054199941929791939e-01,3.071076901284341409e-01
-2.715438243147658692e-01,-7.559124096690339467e-01,3.192131860529994203e-01
-8.082239049484237770e-01,6.145253113861424976e-02,3.236298294581338997e-01
2.407123865677822383e-01,5.773825550633789883e-01,-2.030656026320027535e-02
2.069092728303595918e-01,-1.020276750506024177e+00,3.727469016202332175e-01
-8.649863301673658134e-01,-3.979548525733914155e-01,3.719332761579581259e-01
8.064604413104800029e-01,-7.000324001699731458e-01,-3.688004044092219602e-01
7.851193957082965857e-01,7.565171387870261999e-01,3.639682012061917771e-01
1.047132864472917424e+00,6.148013024406368682e-02,3.717932939594853492e-01
-1.334000041890590627e+00,3.329701973856193375e-01,7.380351445542438285e-03
3.756077630665448364e-02,-6.730893558594071013e-01,-1.855748212841949185e-01
6.783153991394547111e-01,4.995311461979806134e-01,-3.402767223333981184e-01
-4.967243543264246997e-01,-1.272614808470124981e+00,8.112478795661762221e-02
-6.101401679349470752e-01,1.219306720932175958e+00,9.237619863546432664e-02
-7.188746774169010312e-01,-1.058401913318515186e+00,-2.500640285036306310e-01
1.052225288173907591e+00,-8.698316098885801040e-01,-8.514812043381381201e-02
8.180006786140243680e-01,-5.040244668229926228e-01,-3.729471120451632871e-01
4.950039693410985264e-01,1.228279008084837143e+00,1.883406475792335222e-01
3.457735632943001458e-02,-6.491364580917837745e-01,-1.347764756999526581e-01
-4.243936765010237200e-01,-6.909777249648753061e-01,-3.238309995270572395e-01
-7.703296739624429512e-02,-1.345116493034074212e+00,-1.413983337754964875e-01
5.418987611719503494e-01,-6.774222585485571990e-01,-3.508113269849028049e-01
-4.684254535658122776e-01,4.182735701996322941e-01,4.728401783174300543e-02
-5.260365508493468623e-01,5.890680244836055124e-01,-3.105201123775857552e-01
4.281038061125265193e-01,5.455950489964934702e-01,-2.160665928125788393e-01
-1.341521495414388809e+00,2.761993274908763341e-01,6.306477403121331371e-02
6.735625328539670553e-01,1.709924860974472091e-02,-1.849465116649531560e-01
1.284415048794969927e+00,-1.726613797932084748e-01,-2.302775163918547585e-01
-4.808529866342031722e-01,5.499161395098504101e-01,-2.607559818053484801e-01
-7.355365679081311558e-01,-1.159020936010835667e+00,-4.134387177818153042e-02
-3.402574593881773080e-01,7.333649403835695857e-01,3.223902334297778505e-01
-1.147772298728333279e-01,-9.263502569012501686e-01,-3.690446281858079658e-01
1.311864911480228768e+00,2.827538326816053660e-01,-1.538418042055846868e-01
-8.256778762125935867e-01,1.037348432794799269e+00,-1.856265645508751450e-01
-9.637643270988330846e-01,5.784652112051223705e-03,-3.732468805102598375e-01
-3.189636371541230142e-01,-1.195378687034078791e+00,2.904485514519954958e-01
5.683467954093770480e-01,3.460398062866623659e-01,1.693224333420237371e-01
6.572970052703157595e-01,6.211246534984337098e-01,-3.625942978304908526e-01
-8.293493062245219094e-02,1.125331498849985845e+00,-3.523388889048394423e-01
-4.902023103370859447e-01,3.882798314791182648e-01,-1.614082752550511507e-02
1.181700961762677027e+00,-1.109402094800549105e-01,-3.251068250520195990e-01
-7.987540242539034052e-01,7.199712645359414021e-01,3.673528942478251902e-01
5.147890895126595590e-01,-8.598614193544744655e-01,-3.749936497310667471e-01
-2.733773750812472092e-01,7.531733578862325196e-01,-3.180005717701344659e-01
-6.210234618359234959e-01,-9.045127597588661916e-02,4.387855117654751447e-02
-7.961948460057312049e-01,2.009004210862277429e-01,3.296022655145733338e-01
-4.053846276858206199e-01,-6.455553123480397559e-01,-2.900285485155399412e-01
1.075260547237652409e+00,-6.337615067698325610e-01,-2.811662080401835517e-01
1.277861857900200349e+00,3.607262843314482659e-01,-1.821312158645579937e-01
1.703460401792427636e-01,6.017004128694735110e-01,1.617100672440820175e-02
-9.617909693394874893e-01,2.057765488684880906e-01,-3.746393633461874151e-01
1.710439808672151729e-01,8.438053708779112982e-01,-3.482739202620195873e-01
5.879531047425379242e-01,3.944701850749195438e-01,2.353168585899101939e-01
-6.987890110623588003e-01,4.774207417665552594e-02,-2.255562696875644257e-01
2.464346912466331141e-01,-5.794951663202784209e-01,-5.929762491179481343e-02
-1.419092267281332753e-01,6.489702460614240609e-01,1.671334859300061537e-01
-8.212685522583305919e-02,9.981013604801558525e-01,-3.749971011767794238e-01
-1.422944741619751596e-01,8.442284109040180118e-01,3.463065543719964223e-01
-6.113273371013910884e-02,-1.357999038037397632e+00,-1.071218146333980659e-01
1.926364153544219415e-01,7.489861026814074174e-01,-2.987645760459725075e-01
-3.745815298687709544e-02,-1.371774439105766019e+00,4.503674102713266930e-02
-5.290011410720228957e-01,6.624719991703406086e-01,-3.427106029317219527e-01
-4.024576150969046417e-01,9.326239488426987245e-01,-3.746688660152788786e-01
4.165138994903089253e-01,-9.650112681147297033e-01,-3.715073467358308568e-01
-8.468698099233012977e-01,4.792611945887568781e-01,3.740323214858414791e-01
2.530247371168106163e-01,1.061146967424560383e+00,3.638171112201379898e-01
1.239105122941321691e+00,5.954645551644882628e-01,1.347018591653344199e-02
6.901460960617867846e-01,-2.735119818432439898e-01,2.724900342318433699e-01
-1.633080477497893257e-02,8.281117864911864412e-01,-3.333688163592606335e-01
-2.952846438497404580e-01,-1.309256414822437486e+00,1.535050245784709833e-01
-6.761934574545516163e-01,4.671668466063332859e-01,-3.299959666943979020e-01
1.118528700993577596e+00,-6.825785691485962703e-01,-2.104927692892092361e-01
3.402010504472031682e-01,5.256203760713854534e-01,-2.882967014452635091e-02
-1.066384614130653219e+00,-5.673771129131999214e-01,-3.120744318369876869e-01
1.194882790742256340e+00,6.735674435400741400e-01,4.997412477408633147e-02
-1.357567622426941734e+00,-9.117966545104010112e-02,-1.028288083377816298e-01
-9.648040454722368597e-01,-4.305311778106056808e-01,3.707183900781731989e-01
1.019138226846112660e+00,9.225509783804074493e-01,-1.550682416611747286e-02
-4.357564866168427420e-01,-5.527585849686310615e-01,2.300630142572824000e-01
-4.050465681697840159e-01,1.267689686247882808e+00,1.765747869787161473e-01
-5.828100836350927905e-01,-4.134802383260562375e-01,2.432364863028640412e-01
-7.766023516279335626e-01,3.470927919133813822e-01,3.439708196584259081e-01
7.436898335850384845e-01,-7.500219768110786278e-01,3.707613075831898697e-01
-4.188910509927813997e-01,-9.896561903518847902e-01,3.674931750368075623e-01
8.412183524052349037e-01,-1.144972113882574694e-01,3.432438471216016085e-01
-4.305665018867274041e-01,-4.568701613684661433e-01,4.564292749768669721e-02
-9.670581327126661630e-01,9.656969932957869540e-01,-7.862617159327493777e-02
-4.340025806757725757e-01,7.457582416903524303e-01,-3.490206719697791504e-01
-6.256405613535912513e-01,-2.959433957653522049e-03,-2.202841846915713081e-02
7.716821687967526655e-01,1.117771003444628652e+00,1.107497124904187891e-01
5.362467252460350053e-01,3.666509927521129364e-01,-1.336115114651988955e-01
-1.996790071565435754e-01,5.968055722605898339e-01,5.678242796736274883e-02
5.442488959183318098e-01,3.262933642472978790e-01,-8.416123618007262386e-02
5.063944250811277525e-01,4.003634425119847462e-01,1.224151706468499246e-01
-3.108470076610768684e-01,1.240752561928772923e+00,2.504577187591187082e-01
7.140151250557650320e-01,-1.168705749069501643e+00,-6.365100024776865206e-02
8.258121533668337788e-01,-2.421553174133962427e-01,3.481209465370637690e-01
-9.838299823263505495e-01,4.268153934589311582e-01,3.679399308216655395e-01
1.058969451361752911e+00,-7.120147180906677420e-01,2.537806089875140891e-01
4.541964002457661298e-01,-4.293448706641501689e-01,1.957737293866096580e-03
-5.284667047998646838e-01,-3.567643639311628978e-01,9.646213145535337263e-02
-5.051596554504920317e-02,7.210442761828994573e-01,-2.525700496522823579e-01
4.782974720965584847e-01,-4.135789702223672815e-01,-7.368257757950441578e-02
-4.731905899682890548e-01,-5.276500250174759321e-01,2.362145984759894402e-01
-1.366199094171260953e+00,1.466287619678383614e-01,-2.674429284569903795e-02
-6.534078072465604459e-01,-5.076868782021025650e-01,3.329481402070370577e-01
6.242233021669486570e-01,5.412714038347284096e-02,-3.423105465066961922e-02
7.134088035795325966e-02,-6.534298919526736471e-01,1.522842653814713565e-01
-3.553416958432233097e-02,1.235925313176525320e+00,2.910721621668746484e-01
5.950326303161266317e-01,1.912803254394907781e-01,-4.024385488331545455e-03
-4.119517697303635151e-01,-8.190544226248758219e-01,3.656578713861777796e-01
-1.793453636165958653e-01,7.340419410546876744e-01,2.844470513820016588e-01
6.320554081574945027e-01,-3.908355896364418963e-02,-7.828604183165482899e-02
2.952366457189606885e-01,1.070886777553069491e+00,3.582453456976820161e-01
-1.004942151631254443e+00,-3.091013706600020394e-01,-3.714599982564023017e-01
7.060298450217920019e-01,6.501250438324163161e-01,-3.728348206519774832e-01
-9.691237733688597977e-01,-9.754002608096890015e-01,-2.242744893947055777e-03
-7.479844794640860828e-02,1.245588103477473396e+00,2.814326443717909410e-01
6.816015064196027096e-01,-3.297480613546928119e-01,-2.857641563820975117e-01
-3.937624548954017367e-01,5.548045703585053889e-01,-1.960609203234766063e-01
1.235011821900547480e+00,-6.009468720393239538e-01,3.395449927428410841e-02
2.641686624738168732e-01,6.759652577766495085e-01,2.557583509335439320e-01
-5.547485983611845084e-01,-1.046059335956801561e+00,3.267243069031929292e-01
1.932823393217646775e-03,-7.205163087307963066e-01,-2.500306289251227887e-01
2.199929269958852962e-01,1.084337018440555633e+00,-3.595803245422399264e-01
6.879799726180678698e-01,7.840581249874190028e-01,-3.725146212775025667e-01
-5.275428294397686013e-01,3.354857455310942815e-01,-1.167135816788051478e-02
5.521245367306332197e-01,-1.246387915875076358e+00,9.331703374975081067e-02
6.280869960373537397e-01,-2.584580296044265979e-01,-1.941738248715809134e-01
-1.234948680164106527e+00,5.967515247888919294e-01,-5.058667904740615784e-02
-4.593051993518613985e-02,6.257765323371603516e-01,4.288178122298180739e-02
-9.026119865369680584e-01,6.161740945096398914e-01,-3.633166207363789368e-01
1.807213460379821224e-01,6.033290599345734195e-01,-5.989666435999373151e-02
7.346036933863957508e-01,4.267117003255016527e-02,2.661682529439950429e-01
-1.202834353535651601e+00,1.118696040307777806e-01,-3.120103302163239056e-01
-1.179311118889786680e+00,-6.625373832529528606e-01,1.274563627161781620e-01
3.174627501220125270e-01,-1.177774095566336277e+00,-3.038238430062532025e-01
-5.937679289994018950e-01,2.213656923799146303e-01,8.026235637681961022e-02
1.163834270180166053e+00,7.288604862491833147e-01,3.643968103090370475e-02
1.305357245360526885e+00,9.602166507670939488e-02,-2.126395696592575379e-01
-5.786207179885712870e-01,-2.734698816375247810e-01,-1.049670783900308879e-01
2.090259470190415636e-01,-1.356805492865485796e+00,-4.044943854638559377e-02
9.189197544520550931e-01,-4.904037251823770149e-01,3.726865812501843345e-01
-5.612599512545023428e-01,-5.504312874730532545e-01,3.080277178089606549e-01
-4.939776750975141684e-01,-5.449387755585896054e-01,-2.658365134678349895e-01
6.094260684670036454e-01,-7.153044812072691938e-01,-3.701222565280322674e-01
4.760775160975129205e-01,-9.922240411112055458e-01,3.612747481269442118e-01
1.205591028065080783e+00,2.521955879488911312e-01,2.948664658458520771e-01
9.360438921908929011e-01,-3.401557307149103426e-01,3.749779537984997413e-01
7.301701711935743022e-01,3.955336005098308849e-02,2.615213824239355778e-01
1.777177953526697940e-01,-6.337055679557144217e-01,1.541627157299513273e-01
-1.323498250849749480e+00,-1.131351023474460593e-01,-1.811842364977321318e-01
-1.160312231326120491e-01,8.162160333874652896e-01,-3.313569277718363959e-01
7.846925761316480008e-01,1.700350895083636849e-01,-3.190267281060180649e-01
1.239670515573605636e+00,-1.318929857535490469e-01,2.824541800172534756e-01
-7.448973118693117401e-01,1.699319523079732552e-01,-2.914538233229135855e-01
9.409209345434368932e-02,-6.267770380495126803e-01,-8.076357464114808371e-02
-8.101370320353251664e-01,-3.158464969694195212e-01,3.515712857265911873e-01
-2.315989464022794320e-01,-1.255400298050110441e+00,-2.532311503600244151e-01
1.274952869857077564e+00,-7.338917524251027669e-02,2.527071465824487495e-01
-5.261440621843551657e-01,1.160236917334273921e+00,-2.560668485269324002e-01
8.784144748972334549e-01,5.747827264783948731e-02,-3.553804030116560209e-01
-9.735371767632825524e-01,3.991151135328405153e-01,-3.713529366185706060e-01
-5.302959552943792287e-01,3.421432847047579662e-01,6.731371617091874704e-02
3.655106698832343848e-01,-6.145673140008004465e-01,2.437751381056003086e-01
-8.111356071313187144e-01,-1.540092193208635885e-01,3.319925139875161690e-01
5.510024229613560420e-01,3.050276025509509603e-01,-5.979524998545650283e-02
7.655694020585637194e-01,9.004637459667024224e-01,-3.279186482697407645e-01
-1.032776208203960572e-01,-7.992929392366570074e-01,-3.208812834197679598e-01
-2.209221073455387985e-01,8.054426643120152773e-01,3.368428173581932139e-01
-1.288721166334559909e+00,-1.897240530593551910e-01,2.214748471946025032e-01
-5.634811071288055029e-01,1.195737876904774843e+00,1.924435193820835666e-01
-3.637275499145674607e-01,1.075507751148694791e+00,-3.497227042815215237e-01
-6.528437335349338566e-01,9.447829733730314095e-01,-3.443875661600864779e-01
-1.153333076638012766e+00,6.801508363991295436e-01,1.604341036282002086e-01
9.056135019374647044e-01,9.786943024776282307e-01,1.716500537201646470e-01
3.315236605658383739e-01,9.300254079232000981e-01,-3.747864934439126827e-01
-4.445676431247945759e-01,8.226348753294767668e-01,3.693372057377659612e-01
-2.651568201483954779e-01,6.637926664230217044e-01,2.434787290648105507e-01
-4.665810994980119641e-01,-5.308025328894291350e-01,-2.336882971054402014e-01
-4.686088377509753933e-01,4.584389114117610742e-01,1.482798318042221064e-01
-1.333218596902033815e+00,-2.043186058181059861e-01,-1.377490985044212413e-01
-1.094043255696143246e+00,-4.474325038158408208e-01,-3.278728663279026345e-01
-3.926380767913080494e-02,-8.690986783248938474e-01,3.517401576255102524e-01
3.810367012730064840e-01,1.131623543556540046e+00,-3.208873920359363030e-01
-6.208305324796639102e-01,-2.680665615248615241e-01,-1.892076322427516111e-01
-8.789792520874609716e-01,8.608697663154067925e-01,2.959308718117820702e-01
-9.478633546847659019e-01,5.062918973738513850e-01,3.675038203604255593e-01
8.804713677225520785e-01,8.453161584605565215e-01,3.032725115123062753e-01
5.360837480159983404e-01,7.252575153675983044e-01,3.619352263944779491e-01
-3.293926690845819794e-01,6.652959237709503704e-01,-2.724949747011325418e-01
7.371339849867377669e-01,6.998059430813313719e-01,-3.746406568644066737e-01
1.235412666741424248e+00,4.876137047232855792e-01,1.814810536667013086e-01
1.832922736884289305e-01,-6.030711625624484151e-01,-6.288413569952347459e-02
-8.627363023935188391e-01,-8.550836398712832187e-01,3.074596033792334482e-01
2.489999817203666921e-01,-6.114033397426690275e-01,1.585425345941397779e-01
2.678240948822446232e-01,-6.398495032390498771e-01,-2.162610738389220966e-01
6.090562431445341041e-01,7.569663907285379967e-01,-3.739207353786350718e-01
-5.095578625857734023e-01,-1.109825038500936500e+00,3.028033583619967883e-01
-7.705078080312324218e-01,-8.623930558011774217e-01,-3.408000618120851644e-01
-1.957740918763376803e-01,7.063106217407809639e-01,2.632572390353975500e-01
1.290645807487273089e+00,3.599171159290319166e-01,1.584277498938433670e-01
1.118834801742958796e+00,7.931919365406260303e-01,5.129356860209163815e-02
5.511512823180101384e-01,4.552358304637319497e-01,-2.435430780838003517e-01
2.756191907447905765e-01,5.676977096209536722e-01,6.718680419008975224e-02
5.908862967717587455e-02,-1.239855191434606541e+00,-2.870843973320384990e-01
-3.969902193301900750e-01,6.345424959398163756e-01,-2.781554472540762601e-01
-4.381960622608914169e-01,5.037289695538199608e-01,-1.736938208168771203e-01
4.138863029462103854e-02,-1.365410290018512329e+00,8.149598053239154316e-02
-5.677495016377163140e-01,-4.635965636766002929e-01,2.632981178212272511e-01
5.077591852885171564e-01,4.511213504619240311e-01,-1.942176474434694766e-01
7.323309323851837638e-01,-8.399120986405893552e-01,-3.571422911615059759e-01
-1.018538248202188523e+00,-7.222873066316931601e-01,2.807128640669525055e-01
-9.046479942686559417e-01,-7.140196998495852432e-01,-3.425997494267491450e-01
-4.486670643428203875e-01,8.132656028395737202e-01,-3.681822077048058084e-01
-4.287062990859060174e-01,-1.006836353886805258e+00,-3.629478300599059959e-01
1.281097399321100561e+00,2.864954689710320079e-01,2.069245394475192901e-01
-1.007041378862453485e+00,4.271061024102912884e-01,-3.630611382389287156e-01
6.300605123025286858e-01,2.102607031442131069e-01,1.669598166674341744e-01
-6.261956076646271740e-03,1.141545274365036500e+00,3.472536147610971735e-01
-1.458745253278362630e-01,-1.215871040269248526e+00,3.003067281392435839e-01
-3.317309923917000636e-01,-1.280186754510845404e+00,-1.914129290718245557e-01
-3.563857566256202203e-01,-7.273437210823243682e-01,3.232813835275205605e-01
-7.769498123083141694e-01,-7.100555695877400209e-02,3.038215585697564558e-01
4.256305963426542105e-01,7.512432502532347955e-01,-3.492509679400877531e-01
-5.841358508446957698e-01,-4.903246170473185561e-01,-2.903262369925714292e-01
-3.153254607652497543e-01,-6.703354447523111048e-01,-2.709956653845730368e-01
1.086335787854367796e-01,-6.419138074093124757e-01,-1.373052337620991326e-01
-7.020665139683678335e-01,-4.720343658264183895e-01,3.419190042271275654e-01
9.616794182284481574e-01,-7.864001453493061344e-01,-2.862285582087189528e-01
5.613442225687845788e-01,2.815805945394911913e-01,-4.740776846274087630e-02
-8.572429635895576494e-01,-9.222169261860604927e-02,3.487595203032834990e-01
-3.015242181839176139e-01,6.396695724278049777e-01,-2.342594690572407101e-01
-2.335882298245079425e-01,-8.847684190607764121e-01,3.652591719354740252e-01
2.904687036610788531e-01,1.306734959204181701e+00,-1.611062313334054030e-01
-1.276537768641326398e+00,-3.487980690182989618e-01,-1.899503306706303574e-01
-7.295504248230563205e-01,6.526588974638038998e-01,3.744048288955652559e-01
4.652465490447410534e-01,1.059301283097149771e+00,-3.405675204730207462e-01
4.511475527477505909e-01,-4.578842881250640984e-01,1.141635856896356382e-01
6.885091542035434165e-01,-7.819943351165880019e-01,3.726515981849870540e-01
1.222326460241871748e+00,-3.924979639980922391e-02,3.015218292333916583e-01
1.055677667888726745e+00,-8.779823221786846599e-01,-3.804323572995312042e-02
6.759242523095666533e-01,-1.175421304433429182e+00,1.181265553197531348e-01
-6.658076312490186499e-01,6.535401518208709161e-03,-1.701819541564467964e-01
3.562708529024994353e-01,1.290708881410698172e+00,-1.603741381534258270e-01
3.385327743919593901e-01,1.312608013160202036e+00,1.191710520876289037e-01
-1.984436156368910298e-01,6.307421806762474326e-01,1.607948891519992707e-01
6.809547060344552094e-02,-9.152729342243586252e-01,3.658805552186245591e-01
-1.139592745744942404e+00,7.619990232244049366e-01,5.542959839059384552e-02
9.337416746690704317e-01,-5.278495017600829398e-01,3.679026429434997247e-01
1.225374168129494290e+00,3.095999705081016184e-01,2.664433635540638390e-01
1.260663715332111856e+00,-1.949218498097587612e-02,2.694454477911679136e-01
-3.231068312936756226e-01,1.063256675051589495e+00,-3.581128471443744132e-01
-1.839673911116293803e-01,9.124974694820375820e-01,-3.685706320285677684e-01
-2.723031754297025597e-01,-6.433215428066948460e-01,-2.230918029364429844e-01
-2.312018368760074549e-01,7.425922123260083607e-01,3.020440849139310879e-01
8.871174713542120949e-02,-6.306398417395898681e-01,-9.352112189577452273e-02
-6.936336500516053771e-01,5.612127341047118412e-01,-3.591826796153545498e-01
4.269110115740997746e-01,8.368236374762119123e-01,3.700758729867100749e-01
3.088737804633785375e-02,-7.715586035604156123e-01,-2.978615459493783590e-01
-8.700019260617729566e-01,3.664823594405932083e-01,-3.708012224098072851e-01
-1.262140887832134517e+00,2.435917457757295068e-01,-2.432145592947328461e-01
2.377332937380754324e-02,1.018281063332078240e+00,3.745404926987090377e-01
-6.171345173088760294e-01,1.013970758011444040e-01,-1.750885636037667267e-02
1.343722117594448484e+00,2.792689332708914174e-01,-4.377795566565049340e-02
7.524717280342831938e-01,7.825711441329540330e-01,-3.650882665946660888e-01
1.312352985961882545e+00,-2.563405335088338177e-02,-2.071332107539959888e-01
-5.278529008346873885e-01,1.043400818726677226e+00,-3.345968594057826540e-01
1.026132650759686848e+00,8.868922641235499338e-01,-1.169679686614030212e-01
-7.502593122885549415e-02,-8.586428882383365657e-01,3.486507963547949007e-01
-7.600610448806943698e-01,-6.890702103826229497e-01,-3.741031761889048735e-01
-9.357657355524479081e-01,4.932959146284444651e-01,-3.705145283204936968e-01
-3.905697853651671214e-01,-6.795176540355305495e-01,3.063785529202944224e-01
-2.258184260846336222e-01,-7.951034501971998569e-01,3.324752537995974144e-01
2.574920719902984434e-01,-5.695502143031887510e-01,6.226072246401863353e-03
4.147416643967449801e-03,8.081265456964437099e-01,3.222012747361769347e-01
-1.251319586171099951e+00,3.156295395257109893e-01,-2.371232638382745894e-01
-1.363457750141008784e+00,6.904092871912657914e-02,-8.515032018088254662e-02
6.154389740437501422e-01,-1.354718301960698423e-01,6.207121787831217791e-02
4.456474751698557002e-01,-1.198192776178865770e+00,-2.512507194087160167e-01
-3.037378659462822844e-02,-6.525214873919741310e-01,1.427382234030978025e-01
-6.003591981024882784e-01,-1.739095125579880885e-01,-5.514394995504634175e-03
-4.610921370330781088e-01,-5.835330896681585333e-01,-2.737602258106257569e-01
3.339169044958518323e-02,6.268535242286363829e-01,4.526781978015911173e-02
-3.551457825423513012e-03,-9.992349905245421215e-01,-3.749992325018536299e-01
-5.387582069044812710e-02,-1.361500717937657923e+00,9.576381438129187573e-02
1.515191324857048105e-01,-7.801230867294649540e-01,-3.138111272086766546e-01
1.134605171819776714e+00,-2.045242670542560814e-01,3.424166389357875540e-01
-1.025357616593829180e+00,9.142335853241445598e-01,3.062763463335467853e-02
9.404603855679519731e-01,-6.050823623214850455e-01,-3.558519140884605636e-01
7.786712390786120208e-01,4.319367505890114312e-01,-3.586410948042320079e-01
-4.757898843841928960e-01,-4.577708134485139468e-01,1.587292446999045148e-01
-1.357317876244797661e-01,1.112722245348584549e+00,3.549524481920450780e-01
-1.160767688947664356e+00,-6.921450810020819411e-01,-1.307679924691293738e-01
1.321303460236284755e+00,-3.579721868973410048e-01,-6.716337073848520356e-02
5.953303765567586892e-01,2.576601963472518464e-01,1.311898950612656878e-01
-6.580425351622235519e-01,6.989072171757970686e-01,3.728544843575706258e-01
3.698952355734737574e-01,-5.643550006395212648e-01,-1.866885524378467942e-01
-1.082669020359846357e+00,-7.214812760719588880e-01,-2.236053953932451988e-01
-9.999869379064983965e-01,1.261219715495084381e-01,-3.749165868926844780e-01
4.000960766023433091e-01,1.250968826628555242e+00,-2.059372160882645408e-01
6.495075738291414824e-01,-1.203934809250486682e+00,7.231330471015104400e-02
-3.104112969186813564e-01,-5.585811168884621258e-01,-1.016394187030198182e-01
1.372709011042352767e+00,-7.257935433440014517e-02,-1.673458172378053041e-02
5.535029220574212427e-01,-9.445165901920333784e-01,-3.628325781820779250e-01
-1.154703249417784239e+00,-6.907172762930106069e-01,-1.457375029308986270e-01
3.077415370886243395e-01,-5.648095285251963915e-01,-1.154271595225087321e-01
2.904918252548464586e-01,1.250534804820157442e+00,-2.450812007579148688e-01
-4.391466085077536108e-01,-4.871745477276062108e-01,-1.490361768884558846e-01
-6.274884261526315621e-01,-1.219801386520205533e+00,-4.937636551105491212e-02
-1.183970032140034823e+00,1.717294689300486177e-01,3.194807469960206370e-01
-3.213252980532219638e-01,-1.063181782120826036e+00,-3.582951260123867776e-01
-1.343182197044453297e+00,-2.027290780470192566e-01,-1.103534658927165513e-01
-5.007667347303419447e-01,-6.517723576886351733e-01,3.300261946814971314e-01
2.060999244514053197e-01,1.284195567445001185e+00,-2.241590682502194731e-01
-4.416186750890627177e-01,-1.224503161540040130e+00,-2.227089857931677241e-01
1.823558537836364804e-02,7.330285088882465550e-01,2.635759164386189402e-01
