-6.121172778266978920e-01,2.813068102804129889e-01,-1.847398090772921497e-01
5.538456148855076117e-02,-1.013327995411280380e+00,3.747062342227243659e-01
-6.179598306397965368e-01,-9.659006893216249834e-01,3.451299030757480901e-01
4.152721672560041877e-01,-5.787227883340668733e-01,-2.405277706893270140e-01
2.943603909249525308e-01,1.116842388096413341e+00,3.414752891903476972e-01
-5.934496212700980378e-01,-2.224105086199459069e-01,8.057056078773035257e-02
-1.216965537315024104e+00,-4.948333195853282102e-02,-3.051451758074386067e-01
-3.280134116260981503e-01,1.241326556973917805e+00,2.449631551973157073e-01
-1.169479569859864787e+00,6.142449446170666211e-02,-3.336954890629197368e-01
-8.685669666714225245e-01,9.972440503111950072e-01,1.914252255721599072e-01
-8.708839542807791378e-01,-8.771691623696700191e-01,2.913705609143937281e-01
5.952506053097798011e-01,1.922404512139598565e-01,1.980823075095749369e-02
-1.087234432706460474e+00,-8.385595533342827812e-01,3.821233666782605787e-02
-1.604358848080822963e-01,6.041213534708159694e-01,6.809081932228693360e-03
1.109524695692066354e+00,2.811875499197349915e-01,-3.459993436757840546e-01
-1.159746149711547991e+00,-1.863244692657694268e-01,-3.318636477285841213e-01
8.914933097590503897e-01,-5.867462261403163515e-01,-3.689198790130784888e-01
2.099482422914299429e-01,7.280304455466009017e-01,2.862077006061035100e-01
-7.010413682546177139e-01,-5.711349374427908687e-01,3.625678705250027778e-01
-1.030021343569998526e+00,-8.810503898120909394e-01,1.195560826977481172e-01
-1.346600611935070413e+00,1.836062536109836774e-01,1.081703091702877484e-01
1.152947634683734623e+00,-1.815620865646995485e-01,-3.356842033405505465e-01
-5.153739193279752717e-01,3.552017191011374586e-01,2.628235545496975661e-02
-1.139865080081832183e+00,3.006528212775955167e-01,-3.296029470780917903e-01
-1.300662040263196040e-01,8.714942779049248411e-01,-3.556668262801004898e-01
6.747082600993188350e-01,1.738752530860057655e-01,-2.206034086850622855e-01
-2.499430146618911996e-01,-8.912591251520555202e-01,3.675540591101467136e-01
1.279255398525628751e+00,5.032738060803534363e-01,-1.518835348405010027e-02
-1.140721347904817967e-01,-9.016255687397369822e-01,3.637443277423451082e-01
-6.746870396558016791e-01,1.185283410643520607e+00,-9.074597164646186487e-02
5.249060542823766884e-01,4.350186683740907001e-01,1.983298333186387097e-01
-1.108130814651280049e+00,7.660156103740177747e-01,1.418883824639864955e-01
4.001504684631935205e-01,-5.252763768171135883e-01,1.589001913432009916e-01
-9.638023538556713676e-01,8.746041233837789086e-01,2.230145008179411081e-01
9.702710944748142996e-01,8.868892466107255457e-01,2.041901739873976385e-01
2.868952435560679359e-01,-1.257606910784567988e+00,-2.378519446523956471e-01
6.251050859498602508e-01,-1.222527020677214082e+00,-3.797035964500322658e-02
-9.440373312210095236e-01,3.915899347631362493e-01,-3.743522356680539787e-01
6.425269696480343518e-01,4.921556523075626410e-01,-3.229242805074846734e-01
1.320635087781220074e-01,8.776130170517676410e-01,-3.577252742303191346e-01
2.427227510991481763e-01,-1.288521966280580466e+00,2.092596164027219485e-01
1.467589414141903109e-03,-1.075003204862624351e+00,3.674226027165564124e-01
2.719194942553968541e-01,9.174947672967289636e-01,-3.725197413577325256e-01
1.221739334860880016e-01,-1.041191115341402629e+00,3.718719774188392613e-01
-6.407060886748670026e-01,8.782760767535275903e-01,-3.647350244728687629e-01
2.785442591667723899e-01,7.859023156876540073e-01,3.361605838870654339e-01
-1.369910276209711730e+00,7.825806605767358926e-02,4.619549929028452656e-02
4.984099349666636924e-01,-5.700292588183720754e-01,2.857817862874019732e-01
-1.223493954609823131e+00,4.426239828672060561e-01,-2.235298334955182764e-01
3.393601016681470073e-01,-6.537372128059849574e-01,2.668903189321487623e-01
-6.159310975583426329e-01,2.597798374333054050e-01,1.752572700336267886e-01
3.382191141849187344e-01,-1.247361422037500667e+00,2.347895343131686796e-01
8.836421172473780672e-01,1.053471217944248028e+00,2.082154094030888274e-05
6.206447243666993741e-01,1.677611607456093445e-01,1.145317221419736298e-01
4.054805821245121566e-01,1.110439851313480331e+00,-3.277871943022902523e-01
7.521017487946923818e-01,2.389746387528231958e-02,2.817081833059199569e-01
-1.519516537732664707e-01,1.206256138469637751e+00,3.066921209354955269e-01
-2.119982309221843039e-02,-6.906282214724404067e-01,-2.124035684260096868e-01
-8.828094004398270300e-01,1.053837699964294439e+00,1.380209938038281375e-02
6.946081122632223881e-01,4.301613553243747168e-01,3.273267004726915785e-01
4.240485778972691300e-01,-9.554192636818481521e-01,-3.722543441356446214e-01
8.911193100642547105e-01,-5.682371103759484843e-01,3.706617218803148761e-01
8.611982818265052630e-01,4.928792253353492248e-01,-3.749202447110947523e-01
3.490994333108264902e-01,-5.243435473672694025e-01,6.058151274341599252e-02
-5.256110184794314799e-01,3.637029290442612695e-01,-1.021346909708118478e-01
8.386203737094134469e-01,-9.956462606964929796e-01,-2.226254145181306709e-01
-1.347139909279457815e+00,8.511079367991598518e-03,1.417752320575486336e-01
8.229184408973637677e-01,-6.067710345520008763e-01,3.743285120105835917e-01
-6.816675394803415333e-01,-2.159024212527385633e-01,2.437697896183612378e-01
3.958253527357192270e-01,4.991472769242387697e-01,9.427786493084322483e-02
3.921465258214572591e-01,5.905113616660326858e-01,2.363525495090209039e-01
-6.793313992489609099e-01,-1.038036542856754618e+00,2.876658469771333215e-01
-8.145065216018297916e-01,-6.701219416925765192e-03,-3.259254445202608985e-01
-3.886059271892782219e-01,-4.901036943870760165e-01,1.882448156966618283e-02
-6.732678674759259296e-01,9.679508149189702815e-01,-3.294799864516309018e-01
4.882646714749563910e-01,7.576357811253296992e-01,-3.617889811243862330e-01
9.765133090632901469e-01,-9.555142573988162358e-01,-8.062401417590266128e-02
-7.570823166641355018e-01,3.988335349473657448e-02,2.865744757105937457e-01
-3.944660564213952614e-01,1.261111022960589301e+00,-1.932608999242076964e-01
-1.134012442449071179e+00,-7.717763368961829684e-01,4.947016413880568619e-02
8.775584221989676248e-01,3.694080034163700343e-01,-3.719333870666944319e-01
9.337683241244689736e-01,6.427436490923931212e-01,-3.503951768121950083e-01
-1.250322689819439725e+00,1.981854719962247990e-01,-2.643956698903936475e-01
-1.062936095895959498e+00,-4.518262407075044340e-01,3.414762448315304955e-01
6.253571420421355498e-01,-5.193181959209845072e-02,-4.331285435660401500e-02
-1.206846300379339487e+00,-6.534476272046674250e-01,-4.411285747202393914e-02
-2.545519379845321284e-01,-5.730613622531767204e-01,-3.919007338160564180e-02
1.095533168279724245e+00,4.407796558886398208e-02,3.623924307642905629e-01
-1.177184827429715197e+00,4.006708577736874388e-01,-2.851858811420383555e-01
-7.790279999305677050e-01,-1.015662232568165679e+00,-2.494255413272706834e-01
1.883690213290444559e-01,-6.169958971687576899e-01,1.211529618294441835e-01
-1.003668558497732510e+00,-5.009896390617488704e-01,3.546829140951976433e-01
8.061425198341841680e-01,-4.534419446568719314e-01,3.674069404752319801e-01
-7.166443321288263890e-01,1.227220844022333252e-01,2.571723205534183765e-01
8.539324890482556940e-01,3.797856432390943615e-01,3.692493566663014315e-01
1.352515095762992337e+00,-2.362638545469175066e-01,-3.871784696120276342e-02
-1.321230408022698866e+00,1.693971596751494002e-01,-1.742721785929198519e-01
9.667436635318459315e-01,-9.708490111887539964e-01,6.049690985657591585e-02
-1.138486031441891394e-01,-7.672212782816757448e-01,3.004657383148652272e-01
7.881778906908571969e-01,5.729065485910276312e-01,-3.741248481043241148e-01
-6.232546131142097101e-01,-1.045043550753863015e-01,-7.188937597704718463e-02
-5.975039579915502053e-01,-1.225598081115010007e+00,9.220038681828066074e-02
-5.752272613874485074e-01,-1.135087098896290891e+00,2.575993533928490620e-01
3.425576825051453445e-01,-6.092280052783518585e-01,2.235675535314922691e-01
9.734959745353679583e-01,-1.198404473648233548e-01,-3.745104417257193452e-01
6.813399400129422911e-01,-1.182777475390245359e+00,-8.608280449716475269e-02
4.455027257314732037e-01,4.384685124830402514e-01,7.834432062747493514e-03
-2.990303748327815050e-02,-9.951241952473292018e-01,-3.749738724741737972e-01
-6.769808165239142861e-01,-2.299845559055440358e-01,2.436973714444641559e-01
1.057754157276497464e+00,-7.991041304683478286e-01,1.859072777303704960e-01
-8.470593542103020679e-02,-8.712736889986526512e-01,-3.536880731701543823e-01
5.830390774645485275e-01,5.789669675683132288e-01,-3.298825299945770118e-01
4.212359916796776793e-01,5.307577969856315248e-01,1.915309775035016204e-01
8.044454511239924610e-01,1.045538274187188144e+00,1.968191584845174202e-01
2.698379076167028434e-01,-6.851436616250432543e-01,-2.666869255065176247e-01
3.405443651711788089e-01,9.158112639158014767e-01,3.742987655721611295e-01
-1.140269647687168320e+00,2.528143869513381214e-01,-3.352827485982389222e-01
6.190318872770238512e-01,8.696485855914301566e-02,-9.110370648795346887e-03
-1.236394522357512127e+00,-3.906695659849429014e-01,2.294022696956983798e-01
1.700881882596414207e-01,-1.364118300302883169e+00,-1.545668587231090185e-02
7.193115222124920605e-01,1.243435550651248445e-01,-2.602192271767671539e-01
-2.092974360244650167e-01,1.186423195084290283e+00,3.141740787990838224e-01
7.358901470268085047e-03,6.737576927451214281e-01,1.849788538217591316e-01
6.239492012471383742e-01,-8.831621765955308123e-02,6.204574370185675369e-02
5.920892218484289371e-01,-1.203390755460906902e+00,-1.556682786789539974e-01
1.283521451293367366e-01,1.187349372601658404e+00,-3.207576543901772825e-01
-6.209483318943634922e-01,-7.412158207981413005e-01,-3.735400904179108084e-01
-9.396401360142718762e-01,9.694077766602426927e-01,1.344604798548010294e-01
1.136503656847729804e+00,9.342450436803141633e-02,3.477506269720860299e-01
-6.618877370671423233e-01,-5.821084923524462162e-01,-3.557664455808987047e-01
-8.895235073171240403e-01,1.445350285411833302e-01,-3.617478090805815172e-01
6.473486508838975917e-01,5.859471905290927207e-01,-3.528945744155438380e-01
-6.699043449270053463e-01,2.391444921561769466e-02,-1.787271414679103831e-01
-4.849342468311839682e-01,-1.207698189882283613e+00,-2.230930106171633565e-01
-1.138755944335536174e+00,6.024457370637300579e-01,-2.398135826029386131e-01
-6.717393089503896908e-01,1.018766413615168398e+00,3.034721180196498502e-01
1.877421196097156519e-01,-6.838815303074131657e-01,-2.367502633089436648e-01
6.239821668643168451e-01,-1.254476337922560136e-01,9.202775162299038636e-02
-1.309944429027492419e+00,2.970430719156118005e-01,-1.511226534973069136e-01
4.444574835890695019e-01,1.301165794039234491e+00,3.697203540374661285e-03
6.672426467387164717e-01,-1.714270418228035775e-01,-2.094023951007334405e-01
-1.121921747969748084e+00,7.891322932970120663e-01,-4.997358181682991229e-02
7.668353729820818199e-01,4.069842057286016668e-01,-3.510538233885344139e-01
-3.567207010509969578e-01,-9.817386492216207960e-01,3.723457162689228772e-01
-1.249329252902329657e+00,5.260311648994638878e-01,1.191841110014350280e-01
2.524212436262803227e-01,-5.718726141575274369e-01,8.823003597716571819e-03
1.184523148854816244e+00,-3.950454589010712891e-02,3.260870009007548198e-01
-1.138468131073121503e-01,9.452292905338653961e-01,3.719231373471915125e-01
-5.632213116511658457e-01,3.197625185726124530e-01,-1.283864036336128112e-01
-9.635950909628194783e-01,-9.641228468888031200e-01,9.371014398325919204e-02
-8.582725689745384079e-01,8.055598001462050961e-01,3.305472660434252141e-01
2.417349351125344936e-01,-1.353515559029941251e+00,7.100074781642986069e-03
-2.197390676034151336e-02,-1.344197306055575636e+00,1.484235510547676218e-01
1.303729056928813357e+00,5.347256170215037435e-02,2.184184180550620136e-01
-1.175780241677987226e+00,-3.757954127586667914e-01,-2.927343692751180892e-01
5.048927002631347083e-01,6.357447168726410025e-01,-3.243789368990649402e-01
1.971165849853245833e-01,1.089188665344310358e+00,-3.594458535221630169e-01
2.540848029528758670e-02,-1.363439004494024331e+00,-9.146015456949563305e-02
5.793052503060859282e-01,3.515404551597084981e-01,1.915703017321505330e-01
-1.443580428981764141e-01,1.307755286536890882e+00,-2.023840785778761031e-01
7.361517853746801787e-02,-6.213035688637513765e-01,-2.206165267719766010e-02
1.084477093511218460e+00,4.578613162824016758e-01,-3.305087602121155044e-01
-7.624207095037230930e-01,5.588983879640125885e-01,-3.709938258308443371e-01
8.656193567022513191e-01,-9.798293680648695325e-01,2.147424535658346012e-01
1.086482064001853542e+00,8.899574987934927295e-02,3.640099286491235708e-01
5.282861430053475971e-01,-3.931279799733602420e-01,-1.549509817390470334e-01
6.901216648128144504e-01,1.073667790482622175e+00,-2.535036424581531556e-01
3.631340320456039050e-01,5.282286100217137292e-01,1.083976142767626161e-01
1.028092516624510511e+00,5.660802591977960319e-01,3.323786927792635182e-01
-5.609151261231941632e-01,1.246170442442092741e+00,-7.897608476137171762e-02
6.646365764387224262e-01,-1.005972750037751551e+00,3.135454113937820031e-01
6.234346578908730452e-01,1.042797586391901454e-01,-7.260485452153435382e-02
1.453143750267530399e-01,-1.190044873131011371e+00,3.179152680876153325e-01
6.366133457574023602e-01,1.694746857971322074e-01,1.555557970702459714e-01
1.369676899183153385e+00,7.604689269237310811e-02,4.898846642615643093e-02
-1.212920138790700486e+00,-9.901137201343365724e-02,-3.058687604401012505e-01
-9.541388907067566150e-01,-1.353729929228028039e-01,-3.732383988897700622e-01
8.360656834963627881e-01,1.412119807609216737e-01,3.427722067441668630e-01
-4.014964262781584581e-01,8.474404772906380945e-01,3.697953332733390219e-01
-8.120639754456031589e-01,8.494014289184539379e-01,-3.315938142529181731e-01
5.761507959724296857e-01,2.661144814657619428e-01,8.447684733524793432e-02
-2.364938871778095031e-01,1.349019242549681419e+00,-6.345664438168351074e-02
-7.522967066017420823e-01,1.889661212400948476e-01,-3.004987251549184890e-01
-3.969557292426896811e-01,-9.494262799580299728e-01,3.738715849279905523e-01
1.298763385639833734e+00,-8.181148950028602207e-02,-2.232054510958393634e-01
5.247982195499931862e-02,1.111990230328301577e+00,3.574974655989547889e-01
6.459888352050920934e-01,5.592528992799969956e-01,-3.455964249643438402e-01
6.683580265622153238e-01,1.563676725134463819e-01,-2.056303737422204569e-01
5.851590789847278540e-01,2.819852061783831298e-01,1.334768025672122549e-01
-4.415769765975401384e-01,-7.362166610385023624e-01,-3.472750197979133091e-01
-4.203960970024303578e-01,-1.014941957940060480e+00,-3.618154082334014143e-01
-1.973053478628453497e-02,7.556495737999335827e-01,-2.846816913517632441e-01
-6.135361448534283335e-01,-1.193405126093957935e-01,-5.123810514878685170e-03
-4.216015195634013057e-01,4.821534247728737621e-01,1.066454523870857818e-01
-1.327928501353422830e-01,8.632561423535847211e-01,3.529872285684595434e-01
-3.236975063317689694e-01,1.224872328950722178e+00,2.633959891141099408e-01
1.441680249013792825e-01,-9.956718797940089516e-01,-3.749511107848896296e-01
-2.118187934944228135e-01,7.926496118818442405e-01,-3.292289487192527897e-01
-6.317209085231805243e-01,-1.066942322007669031e+00,-2.881952487663285711e-01
3.589347835344894322e-02,-6.400121147381322428e-01,1.084287612131390327e-01
-9.487158890501145025e-01,9.766978287621924659e-01,9.928868516945410505e-02
6.169846879322807842e-01,-2.159141701800670332e-01,-1.438156799345944314e-01
2.836655868047669449e-01,-1.315586678683255517e+00,-1.450267432021025427e-01
-1.194848428377468741e+00,-6.804031297188805061e-01,-1.941007612269283035e-03
-9.825236971087173421e-01,6.757612543377646830e-01,3.218335703735329956e-01
-3.719609753663397078e-01,1.209469008799493928e+00,2.649563601692917492e-01
1.090522314452621461e-01,1.253158741370107743e+00,2.722412426425853682e-01
-1.278505335739890336e+00,-5.001142967855448651e-01,-4.018940597013050814e-02
6.424256225784535923e-01,-8.185486870745409815e-01,-3.728017599234050294e-01
-4.712427870145870501e-01,-8.738327250098797405e-01,3.749308886728487389e-01
-3.922378138668041747e-01,-6.390297314405636309e-01,2.793351333830902394e-01
2.680887821222024958e-01,5.645913655253411711e-01,-2.450096491449026571e-03
-1.366198036027705287e+00,1.520870919022885570e-01,-1.649042633159875093e-02
7.917654027016803875e-01,-8.648431673105696493e-01,-3.329497281820575916e-01
-8.368455474657686757e-03,1.054176775086212325e+00,3.710610150964752663e-01
-6.809946619774588372e-01,-8.785915226134849432e-01,-3.580058767457987012e-01
-6.301295294388339352e-01,1.504468531316811852e-01,1.288750434397920031e-01
-7.437865972336821230e-01,1.043087689669723650e+00,-2.481944813759864310e-01
1.236390301737782638e+00,6.012050901549904625e-01,-1.186707369839451465e-02
6.307840271698527124e-01,-4.423044194082862424e-01,-2.964970279514518303e-01
-3.749065703207195566e-01,8.470624661576285908e-01,3.676905470425519407e-01
-1.301783883679951348e+00,3.648695967679679852e-01,-1.294434191361768516e-01
-1.249290680197914893e+00,-5.612279552378194314e-01,6.362281364574653986e-02
4.297634256973102973e-01,-4.774619266159971787e-01,1.128758973645436481e-01
3.698663570422340841e-01,-6.114152663509968555e-01,2.432334065013685431e-01
5.979170398054676205e-01,2.574171768427476192e-01,1.371368534031772168e-01
-1.351965383781656760e+00,1.721251049547677936e-01,-9.457425007012965068e-02
7.918376891353351432e-01,-5.239330643902614382e-01,3.715814268981553203e-01
1.198163025985275187e-01,1.198186777609724585e+00,-3.145514967256738958e-01
5.518864313155265044e-01,4.246539915614331306e-01,2.200555264616559925e-01
3.450349808109293842e-02,6.269201671011934707e-01,-4.629755077153600851e-02
2.425015648764146381e-01,-5.918105456753566251e-01,-1.035060096342801800e-01
-6.768036777738185572e-01,-1.190245179827742916e+00,-6.562064031027556310e-02
1.634258190340196482e-01,-7.847573668648945011e-01,3.182135395941328992e-01
-1.065071845869674183e+00,-3.513498134542338835e-01,3.547618646301843870e-01
-2.672473553631219967e-01,1.279967283810618639e+00,-2.145370457076053450e-01
-5.369232091589214440e-01,-3.229783953952531927e-01,-3.437957716775272288e-02
-1.241249913709868424e-01,1.065882087973997194e+00,3.678091457184154978e-01
-1.444860113888785103e-01,6.937099458754212300e-01,2.360281480902142737e-01
-6.543640622062317780e-01,-8.643067936275014018e-01,-3.654536878437385505e-01
-8.639482148053535537e-01,6.546258777477301782e-01,-3.654830579564610771e-01
1.327113531414795822e-01,1.185440624831011647e+00,-3.216137251220047011e-01
-2.429324061558356673e-01,6.824708176593810016e-01,2.543226139815935039e-01
1.225144913996223606e+00,6.212162086307209119e-01,-3.189658119276694848e-02
-8.969312196433861795e-01,-1.184347262141655366e-01,3.626928482996370495e-01
-8.929640448749441850e-01,3.381121983824543764e-01,-3.722698956869898712e-01
3.808035777193521237e-02,6.391063761047672820e-01,-1.058188972832407315e-01
3.142507573746868288e-01,1.022970436482115275e+00,3.683801161659864820e-01
-2.046492859542285436e-01,6.155070626670713363e-01,-1.310313465048996706e-01
6.214312557029412210e-01,-6.681941629059262588e-02,3.159697966966517647e-03
1.144924134653984682e+00,1.446199509210806255e-01,3.419097832475131438e-01
8.496319751882414062e-01,-1.013980318446344508e+00,1.907061808197753616e-01
7.625000548403628731e-01,5.242809117657532686e-02,-2.916687832314620032e-01
-6.818094476749884114e-01,3.965915005555280537e-01,3.098458179805713142e-01
8.315789416904388887e-01,1.050640831297636302e+00,-1.583774942379382877e-01
-6.419478384107674129e-01,-3.348093949349202347e-01,-2.538818587434585328e-01
7.577769343731278751e-01,-2.255585929714542803e-01,3.111125107431272907e-01
6.380991273033056466e-01,-3.561048460688022166e-01,-2.610059957196400049e-01
2.004149604652042116e-01,5.947068306968819051e-01,4.381627588398483153e-02
6.324571757278464323e-01,-5.880219364085385036e-01,-3.493061899012432914e-01
2.675749174659409757e-01,-1.345137193052123648e+00,-5.117291518770986786e-02
9.674058677518156957e-01,-9.412230168702043764e-01,-1.353253136738761797e-01
8.146192441242259275e-01,9.822792729695878355e-01,2.537397575388685711e-01
-7.550801824702685350e-01,1.145206191132959628e+00,4.941434497099886358e-02
-5.659642008187110163e-01,-7.995091988331493038e-01,3.744423224615183177e-01
-4.669889061736728353e-01,4.153876814306195486e-01,-5.819139347059282003e-04
1.047947467638354224e+00,4.675137538652738289e-01,-3.447722171302318728e-01
8.607711686626926539e-01,6.274334426637676043e-02,-3.491003223794567623e-01
6.613565587177169247e-01,1.188557013674062857e+00,-1.044181119638778465e-01
1.579539998707028131e-02,-1.001948324556005243e+00,3.749942711705259724e-01
1.503861943789896460e-01,7.054598103769260664e-01,2.509132090894564682e-01
-1.326102523047356825e-02,9.252623861787434567e-01,3.674962365866324410e-01
-6.366483877806746738e-01,3.481974436903021441e-01,-2.556463892078962852e-01
8.460256439676552276e-01,-8.178238454656837630e-01,-3.307661758652079564e-01
-7.999555051045320608e-01,1.044977329343969696e+00,2.018833589781216797e-01
-6.368140359725551480e-01,2.984262710034558674e-01,-2.292967698307593893e-01
9.809049185558720296e-01,-2.547913448397530756e-01,-3.747585032201837807e-01
-9.930045702127657803e-01,-7.563350197531650831e-01,-2.810736052080181624e-01
-1.240855741502657317e+00,-1.764886154434530674e-02,2.873204464666473390e-01
9.529204654330645230e-01,1.967493554917117485e-02,3.720585964218889319e-01
8.514199167429670201e-01,-4.014728917677973796e-01,-3.703815180073013469e-01
-5.794314044235210348e-01,2.711425360204151591e-01,1.040821402438742160e-01
1.833099732731637566e-01,9.557368311348330980e-01,-3.740380701227289384e-01
-1.029670797135946003e+00,9.064453189250890608e-01,4.880241763649278974e-02
-2.764325210378679176e-01,1.258332278936074689e+00,2.397626731157565527e-01
2.916017259782185400e-01,5.793905021102355724e-01,-1.310202792063414889e-01
-1.981984853641295674e-01,6.670154699221643169e-01,-2.193427561186944152e-01
-2.687377845141653010e-01,5.837323837842631757e-01,1.136055444107320345e-01
1.272537934369421531e-01,-6.620600851090269190e-01,1.856490238755325317e-01
6.268254415308720517e-01,-5.568380230019153165e-01,-3.384121815007484213e-01
-6.163051009930927693e-01,-2.805763555064115788e-01,-1.907978441956368898e-01
1.310539796614552444e+00,7.588110038324763842e-03,-2.101818036449979998e-01
1.830137077684684255e-01,-1.338110178388256299e+00,-1.331441003319341343e-01
-1.561923650936793972e-01,-1.058560547537595209e+00,3.684046122220661079e-01
-9.485397640640622074e-02,6.446484878197955570e-01,-1.386908887373655141e-01
1.728364430474735036e-01,1.150182786630248088e+00,-3.376753090853862327e-01
-7.629159348359252357e-01,7.132795365917332653e-01,-3.723601269564495997e-01
4.970277787731610109e-01,8.615560791388655604e-01,3.749617404768296192e-01
-6.962395575064078690e-02,-6.426197216044569061e-01,1.248125303055490909e-01
-4.341435064709887603e-01,-5.293853431710211499e-01,2.029086421994900913e-01
3.743774092662215947e-01,-1.184568158422250272e+00,2.861918703118840335e-01
5.186440312702012695e-02,-8.905389482651945299e-01,3.591258186777954720e-01
5.245444224363896568e-01,6.023404189820477095e-01,-3.164066596105638562e-01
6.727386412481097810e-01,5.901341560617459070e-01,-3.599691202909117149e-01
8.102180368968574520e-01,-5.910271431528720809e-01,-3.749889480761355864e-01
1.268056958067441231e+00,4.379384490727356583e-01,-1.548161968693995139e-01
-1.210774100856986779e+00,-6.223530691396391701e-01,-1.002245215805601802e-01
4.018195475276196138e-01,1.300152169561745064e+00,1.021160410261689189e-01
6.055068962884592176e-01,1.017549187294236823e+00,-3.267103162880505285e-01
-4.729736323738035209e-01,1.271341161287176780e+00,-1.164205018120186147e-01
1.122443818875170196e+00,-7.415885381407663068e-01,1.462617524889140430e-01
8.106922913176608514e-01,-1.021268899860086732e+00,2.196736602107397518e-01
1.078834896964629531e+00,3.849773195011808036e-01,-3.456365920001033265e-01
1.067627290816450802e+00,-8.262133928512360725e-01,1.346708987884585595e-01
1.312206316157364938e-01,8.717213600869616608e-01,3.557988117204151091e-01
1.610246265723287440e-01,8.211605874208994793e-01,-3.376250036925823039e-01
-2.204216331955618779e-01,6.280343978307511010e-01,1.696949774908641517e-01
-1.294013588106427859e+00,4.139818607379561199e-01,1.096160629216656746e-01
8.129193500125424521e-01,-5.396801198570891911e-01,3.742152426252741693e-01
1.248702368417642816e+00,3.815840919577098145e-01,-2.171861172616239011e-01
7.967228550248506291e-01,9.132915541352365496e-01,-3.093447238079628514e-01
-5.701889805653599375e-01,-5.939952957496924535e-01,-3.307997897470808524e-01
-4.841690520758896166e-01,-4.256456145071158548e-01,1.198437845588974371e-01
3.491831802414688268e-01,6.007862070058779258e-01,-2.180212378306131960e-01
1.354063915970739052e+00,-2.084275743844247186e-01,-6.096383528080082104e-02
9.220342136530705890e-01,7.760625753982814956e-01,3.138992552326668739e-01
-1.271785132079113145e+00,3.222518459068077212e-01,2.080753357001853820e-01
1.075154136335205957e+00,5.009464203210359928e-02,-3.671514350000915083e-01
-1.301573447930336913e+00,3.347224251633346692e-01,1.494692986162364512e-01
2.686771372533048874e-01,-6.540943663731185742e-01,2.342000877386601898e-01
7.450572446053037590e-01,8.168758504867198456e-01,3.598184717840365310e-01
-6.689051492768059992e-01,1.407313053775410550e-01,-2.012059650139428890e-01
9.974386372584841398e-01,-9.272791195418982335e-01,-9.830737747808748761e-02
3.497001115417163741e-01,1.118174684052747780e+00,-3.334434844559147626e-01
-4.803872167341619037e-01,1.076057180935681812e+00,3.298359012379760147e-01
1.120374975250256755e+00,5.430136381544417024e-01,2.838740449534874477e-01
-1.782552353184432489e-02,-1.204877322506568094e+00,3.140003793136254551e-01
3.073720161118730365e-01,5.758000993767919962e-01,1.414599363175675917e-01
6.593691743066195654e-01,1.015205928099346955e-01,1.727090088533101697e-01
7.015842543949649679e-01,-1.980152000392689238e-01,-2.591912252216808654e-01
-5.550955315477900109e-01,-3.394699669591094149e-01,-1.363571065042418207e-01
-1.132815013890714706e+00,5.963161566300035910e-01,2.492463316266409490e-01
2.225228352454545200e-01,-1.314067463775207667e+00,-1.728747286395092841e-01
-1.048241938734937095e+00,7.784433108837821580e-01,-2.172286250307342570e-01
-1.186544839658273620e+00,6.121202376581306170e-01,-1.682585630944468114e-01
7.149054127434705252e-01,5.045767455084670949e-01,-3.535660033538550184e-01
6.297424489642190482e-01,3.609131937291836824e-03,-5.951474002080056613e-02
1.153553469873525250e+00,7.347469400327536482e-01,7.375012801283575836e-02
6.009579755602935114e-01,2.962200804441805779e-01,1.781107405905368590e-01
-4.665540547584786091e-01,4.906784290582145158e-01,1.906515095177332142e-01
8.559342750254539389e-01,7.776240083541696713e-02,-3.476684369113491324e-01
1.038389560677480672e+00,-9.107326741129692649e-02,3.725980343196304001e-01
1.076474773390855566e-01,6.295066177961796683e-01,-1.002350687141531638e-01
-9.525721220071237116e-01,4.097173030174702246e-01,-3.731753182743371977e-01
-7.409918962027020051e-01,1.156119548695953458e+00,3.668652191602431167e-02
8.269275062956155109e-01,1.098548453617528287e+00,1.400749929159346863e-03
4.436808536921454382e-01,4.435880154253549201e-01,-4.230422773503894618e-02
1.269555598258965023e+00,3.969004696314305525e-01,-1.778352817229281735e-01
1.322668818252087153e+00,-1.262625596800252131e-02,1.909736616631660111e-01
4.441928617545966296e-02,1.342321923417381768e+00,-1.514500614303677384e-01
1.026924282968309177e+00,-2.813986742873620939e-01,3.693621729500591311e-01
8.653417693548901557e-01,7.822915289313924214e-01,3.359942906585914879e-01
-5.501919962489355831e-02,6.390240847655276335e-01,-1.096476908853546289e-01
1.878496682000034279e-01,-1.361696650573437584e+00,-1.747173091149002710e-02
-3.633202839322973721e-01,-1.315043808785831825e+00,8.889997058136407670e-02
-3.447776777112008806e-01,-5.323740828840339834e-01,-8.284866999478815441e-02
-7.930435956446052481e-01,7.698258094542270724e-01,-3.599306454547755996e-01
-5.098201679778159301e-01,-5.400365789888651458e-01,-2.727734660428588476e-01
-4.906784126393614609e-01,-5.429844302814079704e-01,2.621411890859215443e-01
-9.510497888938495015e-01,6.007223697976689369e-02,-3.720360693924625872e-01
-8.404211703092017149e-01,-1.085560729733791030e+00,-3.998738943864176693e-02
-2.399844044725497894e-01,5.853727957113508129e-01,7.538904167999299633e-02
4.554392842259235574e-01,4.497810494841623097e-01,-1.053420491535928261e-01
-6.578047887357791890e-01,1.021558579815227130e+00,3.072273776381558297e-01
8.625994526134694862e-01,4.782202193922843181e-01,-3.747493795477843115e-01
-2.782935642249295682e-01,1.342951581351060852e+00,5.123678149573529517e-02
8.117139201610142907e-01,-2.150541438798701799e-01,3.390205862562598593e-01
2.711154550592342893e-01,-6.817967196645149386e-01,2.640490328827846955e-01
-1.124845073689916930e+00,9.498605301645351995e-02,-3.521691080982661815e-01
-7.241597177682740361e-01,-4.077731617631764616e-01,-3.347976476036712556e-01
-6.621426323822652282e-01,1.204981751765244136e+00,-7.587607926875285409e-03
-1.018615602723996538e+00,3.986493630459569393e-01,-3.630673893688760590e-01
-2.659430871962717088e-02,-6.329635820941478253e-01,7.949146060448558648e-02
8.317704221627226779e-01,5.111604693139978201e-02,3.359305142049006099e-01
-7.181052133185150677e-01,2.247848656419671465e-01,-2.816937057047861348e-01
-2.256974008964215683e-01,-1.163120466731077940e+00,-3.262945160184401172e-01
8.807935786298484171e-01,-8.646289632415971038e-01,2.928318838688889758e-01
-1.817196110468703024e-02,-6.970746022199786340e-01,2.213698841471543333e-01
8.946054946868030600e-01,5.924421433497429473e-02,-3.604527829215619095e-01
1.741588340225571907e-01,-8.804026811925403928e-01,3.607093053288472073e-01
6.400802709312654049e-01,-4.859614427166363271e-01,-3.194896257243457494e-01
6.192595704271710577e-01,-1.691312541100118139e-01,1.114383285696883552e-01
3.362827854661052385e-01,-5.644112653229005350e-01,-1.515735202771801848e-01
1.289882419119166013e+00,-4.762610818823843073e-01,-1.008156726372841285e-03
1.867718689921877562e-01,6.817821287614909131e-01,-2.339201372662548795e-01
-1.175897362413926395e+00,6.790938322330412058e-01,-1.119365368275142270e-01
5.931653874674466254e-01,2.164452082383303833e-01,6.910308461537013891e-02
1.362901136212469000e+00,-6.682213343812377915e-02,8.795934220974983841e-02
-9.245012002209129776e-01,3.186076065714121275e-01,3.743459503024615387e-01
2.830186901470655991e-01,-5.614884918198519426e-01,5.313602714166756891e-02
-1.152421074928246802e-01,-7.022915682810186855e-01,-2.397893122501109087e-01
-4.968360197106142517e-01,-5.134348921246765229e-01,2.430951180952168889e-01
2.499164255169800675e-01,8.912048073426419581e-01,-3.675420211692668193e-01
1.002160964531549459e+00,2.685940697243180408e-01,3.731172303035992788e-01
-3.003515127456043640e-02,-6.265294830420444772e-01,-4.100840504598740610e-02
4.052007477949583492e-01,6.412265855433652018e-01,-2.869050494951999597e-01
2.436224590355522135e-01,7.030315809586108466e-01,2.740672261289510692e-01
8.002583653143257036e-01,-6.438862465068931895e-01,-3.740170858376547502e-01
4.386415350217338638e-01,7.573102348542228857e-01,-3.536139849994678896e-01
1.768661043067888961e-01,7.989242379438382669e-01,3.280217466878734833e-01
8.181612407596604575e-01,-3.018804379234142909e-01,-3.525065954115481626e-01
-6.830204055495563420e-01,1.833188413544897810e-01,2.342847927984950673e-01
4.569505529059297855e-01,6.403168537532857307e-01,-3.083900235894035946e-01
9.207638815905867524e-01,1.019119076909144939e+00,3.388044178529624889e-02
1.020772517051609984e+00,-8.964211456526249844e-01,-1.099823280830625333e-01
-1.034149453831915366e+00,5.700999230232800530e-01,3.284923209502265129e-01
1.012900860468983311e+00,7.166981983193384531e-01,2.874589220603637196e-01
-9.381049216025444393e-01,1.635396620603610518e-01,-3.719478975359121198e-01
-7.944444638635472788e-01,-1.071962566723296373e+00,1.699889811883067425e-01
5.028389620813957794e-01,4.121792768031521947e-01,1.351055916251715505e-01
9.189924257729034096e-01,-3.438465811288533014e-01,-3.745290666938018154e-01
-2.164091891969084358e-01,-1.355115497520572809e+00,4.502853662467193319e-02
-6.513334644071328006e-01,-5.287327453134380711e-02,1.433391367089145718e-01
4.307562093383726087e-01,-1.191707993013883415e+00,2.631451932828299256e-01
-4.498804106232521249e-01,4.692146378364083215e-01,1.347385748181734733e-01
5.719558982650221335e-01,-2.537430492698187767e-01,-2.314374927720228015e-02
3.559746164649187361e-01,-7.343701166246139334e-01,-3.268109257311789251e-01
1.079909138386405815e-01,-9.740881139547693524e-01,-3.744692716372218788e-01
4.218602666430128212e-03,7.043570785690652647e-01,-2.307113621619453214e-01
-6.840501894071138178e-01,5.481592222410474058e-01,-3.541101662304937947e-01
8.784279239842588405e-01,5.813521236327470199e-01,-3.711815643665145048e-01
3.908638137184372030e-01,5.320813358544045357e-01,-1.586561785811399505e-01
8.497724551809273663e-01,8.675099661094806125e-01,3.076879387529771193e-01
-6.334327828853630882e-01,1.140105231742924163e-01,1.166708440066806102e-01
-9.857939907190056417e-01,-7.890511952089748204e-01,2.676150413882699697e-01
-1.848782130347189911e-01,1.331226701626787357e+00,1.492877365800271416e-01
6.247092566337555386e-01,-5.792587975919802346e-02,4.226233979790052636e-02
-6.592251311905492628e-01,4.813817869931127924e-01,3.269104190910576690e-01
-1.047170644681101770e+00,-8.885271701141743694e-01,3.530661563898884747e-02
-6.315672938088494615e-01,-2.536383534594945088e-02,7.250670200933020948e-02
-3.077631017842073491e-01,5.486279813052021836e-01,5.500143844055313536e-02
-6.642889847185867724e-01,-1.186680433539054391e+00,-1.051381724310997967e-01
-5.409164544112388118e-01,-1.161998682972387398e+00,-2.474939605654113417e-01
6.586176561429308851e-01,3.693607164286443756e-01,2.840039572507151999e-01
-3.994085679477129003e-01,1.179275878229190111e+00,-2.838342078822958525e-01
1.214006423679352631e+00,-5.775998533691241166e-01,1.483510982687288871e-01
-6.605544432015744150e-01,1.583032408859678386e-01,1.942932837579813832e-01
7.943928038543316417e-01,4.086801746584745598e-01,3.595155031718625938e-01
-5.592113317796990613e-01,2.801636421604820071e-01,-1.870933005390686826e-02
-5.924746765852139108e-01,4.200872398657244933e-01,-2.563371375222869286e-01
-1.106864292392432558e+00,2.550914570177614804e-01,-3.495168146968299916e-01
9.536295520871446163e-01,-3.361457618916912082e-01,3.748345091569801890e-01
7.284905270979107339e-01,8.217797645245168703e-02,-2.634297554128119390e-01
1.074307470204885817e+00,2.336956349784076736e-01,3.615775511765983996e-01
1.009506042074075571e+00,-2.946841832011613538e-01,-3.714277576201014952e-01
6.048214828204859783e-01,1.598735173070334192e-01,2.110864624653982155e-02
-8.232824587820042339e-01,7.665073747624061573e-01,3.536001033303810548e-01
-3.679170873561176114e-01,-5.516431854050179995e-01,-1.646479534444270365e-01
9.909095903880249523e-01,-2.416880828496277278e-01,3.744685113955167899e-01
2.014793401494311409e-01,1.145627590329950873e+00,3.376205514368559868e-01
-2.112346320368564123e-01,1.216566759927446117e+00,2.924183060739450335e-01
1.780053279759483131e-01,-6.011487854553165811e-01,-3.818866493528855210e-02
1.266524154025401749e+00,-5.342733288740644237e-01,-1.726653755328098200e-02
9.896874569891568330e-01,-9.335560173140466933e-01,1.032088691428506011e-01
8.688364300424435971e-01,-1.037564137127540559e-01,-3.535568523263494800e-01
5.441040398804500300e-02,-1.373310443849496520e+00,-2.141749668864433714e-02
1.113591915720066439e+00,8.446638299980661901e-02,-3.563494442703882825e-01
5.781608962447657742e-03,6.584003501390564006e-01,1.547644056588141637e-01
-9.973015295656974255e-02,-6.217880962246773446e-01,5.940578423339429315e-02
1.219145337887370451e+00,2.823798002540233928e-02,3.040672637831824399e-01
1.240678932440592019e+00,1.895573214167495524e-01,2.748838803946268006e-01
-9.893525277813934871e-01,9.292130251873111924e-01,-1.138587769888579904e-01
-5.186645234156879170e-01,-9.435642883638193368e-01,3.670681221214971424e-01
5.734542600450324989e-02,-1.340899212464229162e+00,1.535433680901218401e-01
-6.112499943025819782e-01,1.207563028096940938e+00,-1.252835863643282088e-01
1.105570029557491951e+00,-2.902491730752026003e-02,-3.597212714063067751e-01
-1.202397925095701092e+00,6.592286080806415427e-01,-5.285785240139459495e-02
-2.145063299390681522e-01,-6.570485711867128931e-01,2.127285113157395546e-01
1.169232310746313841e+00,6.448508035968633090e-01,-1.679920875954122317e-01
1.936456173955421189e-01,1.122162485555023625e+00,-3.483876585351276534e-01
1.328885732837742917e-01,-8.876915056418739347e-01,3.607433948527343781e-01
7.219083093616658342e-01,-8.098705168215668271e-02,2.564921201858459954e-01
6.806493516186603587e-01,4.803050862767015983e-01,3.357879418090435331e-01
3.706110224337093584e-01,-9.847340617627583503e-01,-3.713538583038967222e-01
1.279275137375721627e+00,-4.895222495831407228e-01,-6.261179002732933374e-02
7.147120970223892478e-01,-8.263790800520184332e-01,-3.633940550232981903e-01
2.241837644012447672e-01,-5.871892282006265784e-01,5.133026606543415749e-02
-8.869932727472957801e-01,9.934420085908871600e-01,-1.747442166078406744e-01
-1.080795542915677698e+00,-7.525970287357585109e-01,2.003203108713527969e-01
6.427188778934271873e-01,-9.455649320752381737e-01,3.465319333231772214e-01
-7.342532453072185827e-01,-1.748337715168680750e-01,-2.837124342281417411e-01
-1.120516406119197006e+00,-5.616331582064402195e-01,-2.764381253098593394e-01
-9.598474183842810037e-01,-2.042994195891018605e-01,-3.745358860360275544e-01
-6.197608282450099981e-01,3.878825686396688011e-01,-2.614113044011427966e-01
-3.412146962002878814e-01,-1.331529701365012475e+00,-1.828304085336493814e-02
-8.718444280115815737e-01,5.152508218909973570e-01,-3.747843019165380540e-01
5.626657964592129968e-01,-4.516317535853381915e-01,2.511243530406500057e-01
6.044631098679617009e-01,-3.916206595191824014e-01,-2.497159866894306524e-01
-1.176706265854913225e+00,-7.031890028332355991e-01,5.591969464548227770e-02
4.988112119275546763e-01,3.810296631907170162e-01,-4.484584288471767100e-02
-1.068052224458900579e+00,-8.244663333263668736e-01,1.365584639093264385e-01
9.796139392347666952e-01,6.243957832955669973e-01,3.383529939792233598e-01
4.465300778895821554e-01,-1.073887709206729824e+00,3.377103816553361226e-01
-8.692217617303208410e-01,-1.057176577505547943e+00,6.878477249164129115e-02
9.469061051621472380e-01,-7.023127897318592883e-01,-3.295592291755092273e-01
7.723489633507792940e-01,-4.084899282027820155e-01,-3.530982944890428410e-01
2.094327298897823708e-01,-1.353209938299552384e+00,6.501702496612922488e-02
-5.126620319151284910e-01,-3.654020121461457049e-01,-5.827846567213682688e-02
2.901977940692623825e-01,8.017775860988310965e-01,-3.448501460121450868e-01
4.120616849542683702e-01,-1.250935992443260369e+00,2.002515660833631972e-01
5.278058116154653590e-01,-3.717079393608324067e-01,-1.224590446125952137e-01
-7.944347971227255778e-01,-8.986068879223455541e-01,3.175760702950822800e-01
-6.709823059943912371e-01,4.485977740194865282e-01,-3.215987814113324128e-01
-9.551621921429868101e-01,-6.477494366985424579e-01,-3.418809021389564995e-01
1.696033906237511268e-01,7.260854054969050342e-01,-2.755382413885195669e-01
9.131066791895385837e-01,-6.905353204454477423e-01,3.459095721201687068e-01
-3.795194765304816253e-01,-5.620448262567415698e-01,-1.925032675039176355e-01
-1.214651208833850804e+00,-6.443770615975061844e-01,2.644538121824968613e-03
-8.411274249099336131e-02,-6.361341507230978687e-01,-1.105680498723370514e-01
6.198332708537785951e-01,1.140176206811709170e+00,2.279490272783127880e-01
-1.227810812996657619e+00,1.357591979302650853e-01,2.919965477001015830e-01
1.984075387069153262e-01,-5.957239874921833600e-01,-4.650977489822454708e-02
2.303752463558114971e-01,1.228634737499043617e+00,-2.794669637201842582e-01
8.319740532973872726e-01,2.849310939914974639e-01,-3.550826431093789259e-01
6.217914779835044259e-01,-4.088104219574935638e-01,-2.741583739509742546e-01
-6.987477994606758891e-01,9.828154603833094693e-01,3.134224318672377274e-01
-8.002413454877389531e-01,-7.030939113730132473e-01,-3.692821326339458254e-01
6.156553516088248967e-01,4.815056605506545240e-01,-3.048295158990789733e-01
-1.310717393413502740e-01,1.368495308231037599e+00,1.347355147660476808e-02
5.961224433181121496e-01,2.563777479817659355e-01,-1.317754801492331262e-01
7.561437657586150829e-02,9.291030106684092793e-01,-3.688153306345912097e-01
2.008374533123199190e-01,1.311108940182252880e+00,-1.846258842956151613e-01
-3.461305812181023622e-01,6.396250335609320326e-01,-2.573814063345024605e-01
5.209420985184401998e-01,-5.095443353492756788e-01,-2.588936656526264479e-01
-7.018953495428446043e-01,3.162807630776244827e-01,-2.960784165893554643e-01
-4.311964619158213385e-01,5.444933154593251112e-01,2.175474791927529128e-01
-3.138346672421631345e-01,-9.907270175931022216e-01,-3.729406822736240357e-01
-5.745833123933669073e-01,5.012042637613560725e-01,2.901753889813099008e-01
-7.057284226250730708e-01,-2.211282627317881222e-01,2.698082129310210298e-01
1.039180943440602078e+00,6.522830459500510436e-01,2.985387315981342660e-01
5.474919204022650199e-01,4.236850434804859122e-01,2.143257901856923109e-01
-4.509829947953856166e-01,5.977070741261585329e-01,2.783931533762113997e-01
-9.360330559282600271e-01,9.438753773698018712e-01,1.793921006994357858e-01
-3.344318889750622636e-01,-8.770073639022767376e-01,-3.699407097842830616e-01
8.800029903627349936e-01,-1.056512460479162474e+00,-5.619295745110819027e-04
6.013166083776392279e-01,2.190903101904727035e-01,1.049523829385102802e-01
1.070147346669890309e+00,-3.367103875154602854e-01,-3.546449441431241967e-01
-2.248010896968442602e-03,-7.393023246573799945e-01,-2.695616888069098382e-01
2.067930791939056601e-01,6.749251636796248510e-01,-2.326522805151599593e-01
1.927838527160879722e-01,-1.181484566113019330e+00,-3.190185036694214715e-01
-7.246931394556288542e-02,1.273695958889109470e+00,2.541331661881387483e-01
-1.333217140705458936e+00,-1.557998497416187289e-01,1.531756739814194024e-01
-5.709292833796507649e-01,4.188780506191943642e-01,-2.354250148686426181e-01
5.922855986036305032e-01,-2.698503240062057329e-01,-1.368491956736153370e-01
-3.445245003332771949e-01,5.339869376427599512e-01,8.804921969809947901e-02
1.352258461056138117e+00,2.487016246616114146e-01,6.799991740365739223e-03
7.008123450754817629e-02,8.861918294610795499e-01,3.581826359286696682e-01
7.244042636277450153e-01,-4.004027282865542658e-01,-3.330720651107635377e-01
5.737874302034512430e-01,-5.013605275370692782e-01,2.897680188650064714e-01
-9.897809095189082917e-01,1.126212480292581447e-01,-3.749804159588968622e-01
7.380363640544481685e-01,2.325844024274875965e-01,2.991093044880207552e-01
8.098546913008132231e-01,-4.503442280229452699e-01,3.677557994922428519e-01
-1.729592455094701164e-01,1.142060903497646551e+00,-3.414294838797730103e-01
-8.883640579663983905e-01,7.860671638579280751e-01,3.255013529729592348e-01
-1.003757398951436119e+00,2.795759087674291044e-01,-3.726444912863106640e-01
7.681971129163914780e-01,4.155100986322260992e-01,-3.529729239879111913e-01
-1.273820707602896452e+00,2.591897909131383182e-01,2.251032774023847272e-01
-4.597548190930688117e-01,4.264132921578184798e-01,3.924145163459286101e-02
1.344509034075354270e+00,-2.604707643666056560e-01,-6.394950753968250967e-02
2.867879110431089673e-01,5.931978850978563145e-01,1.557767049141902116e-01
4.479539767387785004e-02,8.793833127144272677e-01,3.554579673163137388e-01
-9.005840436757631684e-01,-8.279557501064043201e-01,-3.012373722468495441e-01
6.426455405589871495e-01,-7.571639756370543428e-02,1.268068049522723117e-01
-4.213339605323941917e-01,-5.374310674700251145e-01,2.001837686750112533e-01
8.372056228750187623e-01,5.344485037738987421e-01,3.749392713178947845e-01
-8.118362302108180772e-01,1.109750664198251968e+00,-3.297224329169888904e-04
-6.263195644866255130e-01,-1.218063332794918907e-01,9.808228363847820708e-02
-1.076444343547825699e+00,1.661094574666669432e-01,3.642402630879927883e-01
1.661690892617703474e-01,1.358677496872690016e+00,6.790198695670544848e-02
-1.227549971698271625e+00,-5.595355548894636044e-01,1.370515558587235283e-01
-6.379836086700111375e-01,1.859958118222504175e-01,-1.676116517848335596e-01
-1.028516073306712464e+00,-6.320966751791169402e-01,3.125426630675610662e-01
-7.135340261628229097e-01,-5.774800267796074138e-01,3.659114227416152554e-01
-1.290672875110780327e+00,-4.629612583503703305e-01,-5.330039042964438561e-02
-6.697907333659370854e-01,3.130453203003967233e-01,-2.695904757428905785e-01
6.305039310327983371e-01,-7.429925241914391298e-01,3.741292952128209559e-01
-1.010268870534146268e+00,9.072574645136252114e-01,-1.121056308862428685e-01
3.579263184001375830e-02,9.637327298296816114e-01,3.733060915147029535e-01
-3.581694747812260160e-01,-5.945985115840326518e-01,-2.169694173492258404e-01
-1.004855243705614409e+00,3.071055141837412683e-01,-3.715518475890024486e-01
4.617935757837077770e-01,7.342487588559667433e-01,3.507719834502649459e-01
1.339127932952496103e+00,-2.887362595447066083e-01,-6.162228093877228363e-02
9.768312375218418664e-01,1.296362520221988612e-01,3.747155140629876424e-01
-5.686023112501409349e-01,-3.109724943595394420e-01,-1.295373186626574968e-01
6.051779904959647682e-01,1.968294353614221948e-01,-9.168997296897810068e-02
1.360385193307574125e+00,6.407479698362408480e-03,-1.036177398846089559e-01
7.761549726440212238e-01,1.106529103554130922e+00,-1.303927677603933244e-01
-8.968314616026958896e-01,-4.153262834953155846e-01,3.748184716622460777e-01
3.572282949612126668e-01,-1.018034463559132741e+00,3.666076627622740780e-01
1.359358917053659965e+00,-1.339066810179799782e-01,8.193961352584740176e-02
-3.473276455409147340e-02,-6.762461649763314986e-01,1.907480756061090688e-01
7.475594757832942916e-02,7.858560711775686158e-01,3.102808443270508865e-01
-2.733451183232372128e-01,-7.183123558785692309e-01,-2.950631272936933280e-01
8.534463178653314275e-01,2.550769629959068752e-01,3.587329830397243402e-01
3.739297933358755044e-01,1.297814754159900330e+00,-1.330331592635748683e-01
4.798534755233928584e-01,1.253892472141323600e+00,-1.525380760178516037e-01
1.070214920869262815e-01,-6.530284306115383686e-01,-1.618799647839472000e-01
-8.746691586826086384e-01,8.870888249013495486e-01,2.832246855503778304e-01
-5.938327392610747157e-01,-4.319384406299957013e-01,-2.646369681250625439e-01
-3.797032932033623381e-02,-9.794842126799295778e-01,3.744779672768149270e-01
4.163467524937211617e-02,7.327120270001497015e-01,2.642207057337160325e-01
1.178096880586380069e+00,-7.042692160088103170e-01,-4.275193998165781328e-02
-1.488695153369057056e-01,-6.226852578818090622e-01,-1.057976259752767545e-01
-9.512467684751075847e-01,5.778748613736027773e-01,3.575637851240991427e-01
-8.091041360732911247e-01,1.058614037943177877e+00,-1.735782133883305711e-01
8.409988018194225479e-01,-6.846057016990575450e-01,3.653744386251305820e-01
-1.095670241666139466e+00,-1.706949898665254539e-01,-3.588434933576046815e-01
7.946434426141729679e-01,4.642865890359482162e-01,3.664407322425298208e-01
1.446773989593148624e-01,-1.191236725835739474e+00,3.172206153374929061e-01
9.984296795968418126e-01,5.138667355581946206e-01,3.542863121005092042e-01
3.809563690664454216e-01,-9.085795592999604819e-01,3.747083443964873695e-01
-1.340635807557853942e+00,-2.903266830507400531e-01,4.954948027311115166e-02
3.474729753117102304e-01,8.500162197766530925e-01,3.659907565021137121e-01
-3.799963016031278340e-02,-7.156000082697304698e-01,-2.455892915387009601e-01
5.788836423293379774e-01,3.413610046456960756e-01,-1.818384195919404422e-01
5.732721429404542546e-01,3.461793098608438868e-01,-1.775345393309329667e-01
3.208510793917636605e-01,1.321506275231102645e+00,1.053469739707130343e-01
-1.211865407849402887e+00,4.818416226117969714e-01,-2.193672724039357758e-01
